ply
format ascii 1.0
comment PLY generated with DepthInition by Giancarlo Todone
element vertex 1479
property float x
property float y
property float z
property uchar red
property uchar green
property uchar blue
end_header
162.706 86.283 2.781 160 159 93
164.344 86.280 2.788 153 151 93
165.961 86.267 2.819 151 148 96
167.614 86.272 2.807 152 146 98
169.269 86.278 2.794 154 151 102
170.842 86.243 2.874 160 166 128
172.315 86.158 3.068 158 154 137
173.753 86.057 3.298 161 153 101
175.230 85.977 3.481 158 158 85
176.774 85.932 3.584 164 155 94
178.398 85.926 3.599 159 151 88
180.083 85.949 3.545 151 148 85
181.783 85.978 3.478 146 141 102
183.450 85.992 3.447 126 130 90
185.081 85.989 3.453 122 127 95
186.740 85.998 3.432 122 126 88
188.502 86.055 3.302 133 128 100
190.421 86.182 3.013 140 141 107
192.463 86.362 2.602 135 133 122
194.539 86.553 2.164 132 129 117
196.568 86.721 1.781 122 126 90
-189.733 81.427 10.267 112 117 140
-188.399 81.534 10.018 117 121 140
-187.079 81.649 9.750 114 120 141
-185.780 81.775 9.457 120 130 136
-184.529 81.925 9.108 120 125 141
-183.349 82.108 8.680 112 130 135
-182.197 82.308 8.214 118 124 140
-180.977 82.481 7.812 115 117 134
-179.594 82.581 7.578 114 122 131
-178.006 82.589 7.561 123 130 146
-176.260 82.522 7.717 127 132 144
-174.449 82.423 7.946 123 137 153
-172.657 82.332 8.159 123 129 161
-170.938 82.274 8.294 125 136 162
-169.383 82.295 8.246 122 134 160
-168.089 82.443 7.899 116 132 145
-166.984 82.689 7.326 117 149 149
-165.789 82.894 6.848 128 181 179
-164.214 82.912 6.807 143 161 234
-162.237 82.725 7.244 143 160 225
-160.039 82.420 7.954 171 186 243
-157.728 82.051 8.814 146 177 223
-155.164 81.540 10.004 158 183 224
-152.079 80.743 11.861 117 130 173
-148.349 79.583 14.564 85 109 128
-144.264 78.206 17.772 68 79 96
-140.521 76.987 20.612 52 61 76
-137.795 76.306 22.200 44 48 60
-136.325 76.313 22.184 30 31 42
-135.830 76.871 20.884 28 31 39
-135.839 77.730 18.882 24 28 31
-135.705 78.526 17.026 23 28 28
-133.811 78.310 17.531 14 18 21
-128.213 75.896 23.154 18 23 24
-120.072 71.904 32.457 24 29 27
-113.265 68.625 40.096 34 43 40
-109.385 67.063 43.736 63 67 68
-107.435 66.662 44.672 67 72 73
-106.111 66.643 44.716 84 86 88
-104.692 66.563 44.902 101 107 107
-103.048 66.337 45.428 113 118 116
-101.402 66.104 45.972 115 117 119
-99.994 66.022 46.163 140 139 146
-98.866 66.125 45.923 141 145 164
-97.831 66.293 45.530 140 138 166
-96.682 66.388 45.309 152 155 177
-95.327 66.342 45.416 145 145 158
-93.848 66.208 45.729 141 147 165
-92.388 66.083 46.019 141 153 165
-91.021 66.023 46.161 144 147 159
-89.734 66.018 46.171 131 131 142
-88.465 66.028 46.149 129 127 137
-87.177 66.024 46.158 124 126 116
-85.872 66.006 46.200 117 117 89
-84.571 65.991 46.235 110 111 74
-83.295 65.995 46.225 102 102 59
-82.058 66.031 46.142 101 99 59
-80.872 66.109 45.959 108 105 51
-79.744 66.239 45.657 107 95 51
-78.680 66.426 45.220 91 88 39
-77.667 66.664 44.666 88 84 37
-76.735 66.981 43.929 82 81 31
-75.972 67.458 42.816 79 80 32
-75.512 68.226 41.027 71 69 26
-75.314 69.262 38.613 59 56 23
-74.988 70.216 36.389 53 51 22
-73.990 70.564 35.578 46 46 16
-72.152 70.110 36.636 35 34 16
-70.061 69.387 38.321 20 19 10
-68.828 69.503 38.052 24 24 15
-69.323 71.403 33.624 19 17 11
-71.138 74.767 25.786 9 8 2
-72.501 77.787 18.749 19 21 9
-72.601 79.553 14.635 24 24 13
-71.905 80.503 12.421 42 42 28
-70.854 81.089 11.055 51 51 37
-69.637 81.507 10.080 62 62 48
-68.317 81.822 9.347 85 80 66
-66.897 82.029 8.865 96 88 79
-65.391 82.137 8.612 103 100 78
-63.860 82.220 8.419 111 109 94
-62.354 82.339 8.143 116 113 91
-60.866 82.489 7.792 120 121 98
-59.352 82.612 7.506 119 116 108
-57.787 82.667 7.378 124 126 116
-56.183 82.670 7.371 123 126 109
-54.575 82.666 7.381 121 121 117
-52.974 82.671 7.367 121 122 112
-51.371 82.675 7.359 119 122 119
-49.759 82.665 7.383 128 131 130
-48.157 82.670 7.371 127 130 129
-46.595 82.746 7.193 130 131 122
-45.078 82.912 6.808 131 132 125
-43.574 83.112 6.340 130 130 119
-42.038 83.268 5.977 126 130 119
-40.455 83.338 5.815 121 124 119
-38.836 83.335 5.822 129 130 123
-37.200 83.296 5.912 130 130 119
-35.569 83.263 5.989 118 119 116
-33.953 83.265 5.986 125 126 121
-32.352 83.307 5.886 119 122 119
-30.761 83.377 5.723 115 118 115
-29.171 83.461 5.528 119 123 115
-27.581 83.553 5.314 122 121 124
-25.989 83.652 5.084 125 126 123
-24.395 83.755 4.844 116 121 119
-22.801 83.876 4.561 121 121 117
-21.212 84.032 4.198 122 128 121
-19.619 84.199 3.809 121 126 122
-18.007 84.304 3.563 120 134 136
-16.369 84.298 3.577 133 133 135
-14.716 84.209 3.786 123 133 141
-13.065 84.109 4.018 120 129 128
-11.423 84.043 4.172 119 126 126
-9.788 84.014 4.239 121 125 126
-8.157 84.018 4.229 119 119 123
-6.529 84.059 4.133 114 119 117
-4.901 84.142 3.940 121 125 130
-3.272 84.247 3.697 120 122 124
-1.638 84.337 3.487 119 128 125
0.000 84.391 3.361 118 127 126
1.639 84.421 3.290 115 123 130
3.280 84.447 3.230 116 120 123
4.921 84.470 3.176 116 121 117
6.562 84.486 3.139 110 119 118
8.204 84.506 3.094 112 113 122
9.851 84.552 2.985 114 118 121
11.505 84.643 2.774 105 114 115
13.164 84.743 2.540 113 118 116
14.815 84.775 2.465 129 133 145
16.447 84.700 2.640 120 120 134
18.069 84.595 2.885 119 121 123
19.707 84.578 2.925 118 134 121
21.377 84.687 2.671 115 119 120
23.071 84.867 2.253 114 114 114
24.772 85.049 1.827 113 122 123
26.470 85.201 1.473 118 120 121
28.157 85.300 1.242 115 119 122
29.823 85.326 1.181 105 109 110
31.464 85.285 1.277 101 110 114
33.094 85.218 1.435 107 109 111
34.725 85.160 1.570 103 110 110
36.360 85.116 1.672 110 112 113
38.000 85.087 1.740 112 114 118
39.653 85.088 1.737 111 112 116
41.326 85.132 1.633 109 113 116
43.018 85.208 1.457 109 116 114
44.714 85.288 1.270 112 113 120
46.409 85.359 1.105 110 116 121
48.103 85.425 0.952 108 112 115
49.807 85.501 0.774 110 114 118
51.530 85.606 0.529 111 112 118
53.253 85.704 0.300 107 114 128
54.922 85.712 0.283 115 132 138
56.503 85.586 0.577 114 127 132
58.042 85.404 1.000 114 116 122
59.605 85.268 1.316 122 128 128
61.168 85.139 1.618 124 125 118
62.604 84.845 2.303 121 119 104
63.742 84.172 3.871 115 108 95
64.449 82.978 6.654 108 106 77
64.666 81.227 10.733 85 86 67
64.487 79.074 15.750 69 69 55
64.176 76.862 20.905 43 42 33
63.999 74.908 25.456 34 32 26
64.196 73.468 28.812 27 25 19
64.872 72.629 30.768 24 23 17
65.747 72.042 32.136 14 13 4
66.358 71.197 34.105 21 21 7
66.679 70.081 36.703 36 32 15
66.960 68.968 39.297 46 43 21
67.417 68.078 41.371 54 54 24
68.146 67.491 42.739 66 63 30
69.127 67.171 43.485 89 84 47
70.277 67.023 43.830 90 87 47
71.518 66.967 43.960 106 100 68
72.815 66.964 43.967 113 106 79
74.161 67.005 43.872 116 113 91
75.531 67.066 43.729 123 119 104
76.868 67.096 43.659 123 127 101
78.176 67.101 43.648 133 132 123
79.500 67.118 43.607 130 129 134
80.808 67.122 43.598 127 138 137
81.969 67.006 43.870 131 141 120
82.918 66.723 44.529 142 140 127
83.806 66.400 45.282 132 131 136
84.865 66.221 45.699 135 135 133
86.222 66.275 45.573 130 135 104
87.989 66.639 44.725 119 119 105
90.339 67.427 42.889 107 106 97
93.602 68.864 39.540 88 91 74
98.563 71.493 33.415 72 76 66
107.064 76.581 21.559 50 55 51
119.175 84.076 4.096 32 34 35
129.223 89.932 -9.550 27 29 31
132.437 90.940 -11.899 21 23 25
130.035 88.116 -5.319 36 38 42
125.679 84.058 4.136 43 45 49
122.845 81.109 11.008 49 52 58
123.183 80.303 12.886 63 66 74
126.047 81.143 10.929 71 74 82
129.792 82.522 7.716 81 86 98
133.182 83.645 5.100 94 97 105
135.818 84.273 3.637 107 107 107
137.845 84.512 3.078 120 119 110
139.572 84.564 2.957 132 132 105
141.223 84.570 2.945 141 138 98
142.866 84.570 2.944 147 141 81
144.471 84.548 2.995 141 145 92
146.015 84.492 3.125 150 144 85
147.535 84.423 3.287 155 145 98
149.071 84.364 3.423 149 144 77
150.628 84.319 3.529 160 153 85
152.202 84.284 3.610 154 147 81
153.817 84.272 3.638 155 149 76
155.509 84.302 3.568 155 157 90
157.298 84.384 3.378 150 152 87
159.156 84.500 3.106 150 148 103
161.007 84.611 2.848 148 146 101
162.757 84.666 2.719 151 151 110
164.366 84.648 2.761 147 145 118
165.899 84.592 2.892 142 138 107
167.432 84.537 3.022 144 140 93
168.960 84.480 3.153 157 147 125
170.445 84.403 3.332 150 152 136
171.901 84.314 3.541 151 142 125
173.398 84.245 3.700 159 147 110
174.971 84.215 3.771 161 149 121
176.611 84.217 3.766 158 149 91
178.315 84.250 3.690 151 141 92
180.093 84.316 3.535 149 147 93
181.922 84.405 3.327 143 143 88
183.729 84.482 3.148 132 135 90
185.418 84.505 3.096 130 131 94
186.976 84.467 3.183 127 129 90
188.513 84.421 3.291 121 125 98
190.194 84.440 3.247 125 123 108
192.079 84.548 2.996 131 126 118
194.078 84.703 2.633 128 122 117
196.067 84.853 2.285 135 139 101
-189.242 79.639 10.758 120 126 147
-187.971 79.769 10.449 109 118 131
-186.704 79.903 10.132 104 118 125
-185.430 80.036 9.816 109 119 129
-184.178 80.181 9.471 120 129 142
-182.999 80.360 9.045 118 124 142
-181.881 80.570 8.546 122 124 141
-180.740 80.773 8.063 110 121 136
-179.458 80.916 7.724 112 126 135
-177.954 80.961 7.618 114 121 135
-176.256 80.918 7.721 114 126 138
-174.466 80.830 7.928 121 127 157
-172.690 80.749 8.122 122 137 143
-171.006 80.708 8.218 116 126 145
-169.491 80.748 8.123 118 128 136
-168.221 80.906 7.748 123 139 150
-167.139 81.159 7.148 114 128 139
-166.014 81.395 6.586 130 147 155
-164.625 81.506 6.323 138 174 180
-162.993 81.497 6.344 155 159 221
-161.285 81.449 6.459 155 161 209
-159.559 81.391 6.595 158 202 217
-157.612 81.218 7.006 164 170 241
-155.102 80.749 8.122 167 167 208
-151.727 79.815 10.341 117 163 186
-147.538 78.428 13.636 101 140 165
-143.076 76.865 17.350 76 98 120
-139.079 75.521 20.544 54 67 81
-136.040 74.674 22.557 49 54 68
-134.028 74.378 23.260 41 47 56
-132.908 74.576 22.790 27 35 41
-132.440 75.148 21.430 27 30 38
-131.874 75.678 20.172 27 31 34
-129.910 75.407 20.814 14 16 20
-125.877 73.916 24.358 21 25 26
-120.914 71.837 29.298 17 17 19
-116.612 70.106 33.412 36 41 39
-113.256 68.909 36.256 53 60 58
-110.432 68.010 38.392 72 77 73
-107.747 67.176 40.374 82 84 85
-105.071 66.326 42.393 91 95 96
-102.570 65.567 44.198 102 106 109
-100.469 65.047 45.432 116 127 128
-98.841 64.824 45.962 119 127 135
-97.541 64.813 45.988 146 144 158
-96.336 64.867 45.862 144 140 162
-95.021 64.845 45.912 141 141 157
-93.560 64.723 46.203 137 153 155
-92.070 64.577 46.550 146 147 172
-90.681 64.499 46.736 141 146 174
-89.429 64.517 46.693 140 138 152
-88.252 64.590 46.518 134 137 143
-87.078 64.668 46.333 126 134 127
-85.865 64.719 46.211 120 126 117
-84.610 64.740 46.164 116 117 110
-83.331 64.742 46.158 118 123 96
-82.060 64.750 46.138 114 110 89
-80.823 64.787 46.052 110 106 62
-79.635 64.864 45.868 104 101 48
-78.491 64.980 45.591 102 99 45
-77.370 65.120 45.260 94 89 36
-76.277 65.288 44.860 89 87 27
-75.271 65.538 44.266 86 79 36
-74.453 65.963 43.257 81 77 30
-73.809 66.560 41.838 68 65 25
-73.105 67.124 40.498 64 61 25
-72.021 67.353 39.954 58 57 21
-70.497 67.172 40.384 45 40 17
-68.869 66.882 41.073 43 43 20
-67.634 66.971 40.861 34 35 14
-67.198 67.870 38.724 20 19 8
-67.848 69.925 33.840 10 10 1
-69.400 73.014 26.500 12 13 10
-70.671 75.933 19.565 12 10 8
-70.834 77.763 15.216 18 19 12
-70.192 78.771 12.821 27 25 19
-69.170 79.388 11.356 42 41 30
-67.942 79.793 10.394 67 64 51
-66.552 80.021 9.850 80 75 63
-65.053 80.126 9.601 85 80 66
-63.540 80.220 9.379 100 100 84
-62.075 80.379 9.000 111 108 96
-60.642 80.590 8.500 112 114 102
-59.183 80.777 8.054 116 117 99
-57.665 80.892 7.782 124 124 111
-56.102 80.948 7.649 126 127 106
-54.525 80.985 7.560 129 129 113
-52.941 81.015 7.488 123 124 117
-51.342 81.024 7.468 121 122 112
-49.728 81.009 7.503 122 123 116
-48.123 81.007 7.508 125 122 114
-46.556 81.072 7.354 126 130 108
-45.032 81.218 7.007 129 123 118
-43.522 81.402 6.569 124 127 119
-41.992 81.561 6.191 124 128 117
-40.424 81.657 5.964 126 122 117
-38.823 81.689 5.887 130 129 121
-37.200 81.678 5.913 121 121 117
-35.573 81.657 5.964 123 122 116
-33.955 81.654 5.971 129 129 117
-32.349 81.682 5.905 122 122 120
-30.750 81.730 5.789 121 121 119
-29.153 81.789 5.650 122 122 122
-27.557 81.860 5.481 120 123 120
-25.964 81.950 5.266 124 124 122
-24.374 82.060 5.005 122 122 120
-22.788 82.198 4.678 121 120 111
-21.204 82.369 4.272 114 119 117
-19.613 82.540 3.865 126 124 122
-18.000 82.635 3.640 130 137 137
-16.358 82.608 3.704 126 126 138
-14.702 82.497 3.968 122 125 135
-13.051 82.383 4.238 132 140 133
-11.410 82.312 4.408 119 122 119
-9.776 82.280 4.483 119 121 121
-8.146 82.275 4.496 117 129 127
-6.519 82.301 4.433 122 121 124
-4.894 82.375 4.257 121 123 136
-3.267 82.486 3.994 119 121 125
-1.636 82.595 3.734 119 120 115
0.000 82.666 3.565 126 128 132
1.638 82.698 3.489 118 125 127
3.276 82.710 3.460 113 120 122
4.914 82.716 3.448 121 132 133
6.552 82.723 3.430 119 121 121
8.193 82.751 3.364 118 119 125
9.840 82.816 3.210 117 122 123
11.493 82.914 2.976 108 112 113
13.149 83.004 2.763 115 118 115
14.797 83.026 2.711 115 120 116
16.430 82.970 2.844 115 117 121
18.058 82.904 3.001 117 119 118
19.702 82.915 2.975 111 113 112
21.373 83.027 2.708 105 108 103
23.065 83.199 2.300 105 109 110
24.766 83.378 1.873 118 125 127
26.465 83.531 1.510 118 120 121
28.152 83.629 1.279 110 115 125
29.815 83.647 1.234 107 111 114
31.454 83.601 1.345 106 113 117
33.085 83.539 1.492 106 114 118
34.724 83.503 1.578 110 114 118
36.370 83.486 1.618 108 112 115
38.016 83.470 1.656 108 112 113
39.663 83.458 1.683 106 113 115
41.321 83.468 1.661 105 108 114
42.992 83.504 1.575 108 110 116
44.677 83.563 1.435 106 110 113
46.374 83.639 1.255 107 109 115
48.081 83.728 1.043 103 104 112
49.798 83.827 0.807 103 111 115
51.532 83.948 0.520 106 113 127
53.262 84.055 0.266 114 121 137
54.933 84.064 0.244 133 130 133
56.507 83.930 0.562 120 122 135
58.037 83.740 1.015 109 114 112
59.588 83.589 1.372 125 126 132
61.096 83.388 1.850 118 121 117
62.369 82.885 3.045 115 109 102
63.208 81.846 5.515 104 96 85
63.553 80.236 9.340 97 93 81
63.477 78.185 14.213 78 78 64
63.146 75.925 19.584 41 40 29
62.781 73.731 24.798 36 34 21
62.574 71.817 29.345 13 15 5
62.739 70.407 32.697 8 7 0
63.402 69.604 34.605 24 24 13
64.292 69.080 35.849 20 19 8
65.002 68.388 37.495 31 29 13
65.512 67.518 39.561 45 42 20
66.048 66.708 41.486 60 58 29
66.788 66.133 42.852 69 66 28
67.765 65.811 43.619 75 69 37
68.915 65.664 43.966 95 88 47
70.151 65.605 44.108 93 90 53
71.431 65.587 44.150 102 94 70
72.746 65.602 44.115 109 105 75
74.102 65.652 43.996 122 119 95
75.475 65.716 43.844 124 127 108
76.816 65.749 43.765 122 123 104
78.129 65.758 43.742 127 133 124
79.444 65.769 43.718 127 135 132
80.712 65.741 43.784 138 140 141
81.813 65.580 44.166 136 142 131
82.680 65.240 44.975 137 132 131
83.425 64.815 45.984 138 137 142
84.285 64.491 46.754 134 131 123
85.443 64.401 46.968 117 114 101
87.102 64.686 46.291 115 115 103
89.528 65.524 44.299 101 102 85
93.196 67.234 40.236 84 86 76
99.089 70.479 32.526 58 62 56
109.008 76.457 18.321 30 33 32
121.241 83.872 0.699 22 24 26
128.490 87.686 -8.362 17 22 20
128.881 86.780 -6.209 17 22 20
125.873 83.639 1.254 25 29 33
122.849 80.570 8.547 44 46 50
122.042 79.014 12.243 53 54 58
123.942 79.228 11.734 64 67 73
127.432 80.442 8.852 81 85 93
131.037 81.696 5.871 91 97 104
133.952 82.495 3.972 102 106 109
136.143 82.834 3.167 123 123 121
137.902 82.905 2.998 135 133 118
139.512 82.887 3.041 141 137 95
141.122 82.868 3.086 144 144 92
142.743 82.856 3.114 148 150 83
144.322 82.821 3.197 150 152 87
145.836 82.750 3.367 141 141 84
147.323 82.665 3.569 144 145 88
148.827 82.591 3.745 156 153 88
150.356 82.532 3.883 157 148 89
151.925 82.497 3.967 152 151 72
153.574 82.505 3.948 160 158 86
155.337 82.574 3.785 150 145 90
157.208 82.698 3.490 147 145 87
159.132 82.847 3.136 149 133 106
161.013 82.971 2.842 145 146 109
162.753 83.020 2.724 140 141 120
164.312 82.978 2.825 139 141 129
165.750 82.875 3.069 133 137 113
167.154 82.757 3.349 131 133 121
168.562 82.644 3.617 139 136 116
169.988 82.542 3.861 141 132 121
171.464 82.466 4.041 143 133 120
173.042 82.440 4.103 156 147 118
174.717 82.460 4.056 152 141 125
176.473 82.517 3.919 140 136 92
178.327 82.619 3.677 133 132 82
180.315 82.781 3.293 137 130 100
182.413 82.990 2.797 134 129 94
184.486 83.183 2.337 133 131 88
186.317 83.265 2.142 124 123 87
187.793 83.189 2.323 116 119 89
189.049 83.017 2.732 119 120 86
190.375 82.879 3.061 110 112 98
191.959 82.854 3.119 115 115 101
193.762 82.924 2.954 122 123 114
195.647 83.027 2.709 127 128 96
-188.888 77.916 11.112 113 122 137
-187.624 78.045 10.799 105 119 130
-186.352 78.173 10.489 109 113 128
-185.061 78.295 10.194 122 127 134
-183.783 78.425 9.879 116 120 137
-182.576 78.587 9.486 119 127 135
-181.450 78.787 9.001 113 122 137
-180.346 79.001 8.482 114 125 144
-179.161 79.183 8.042 119 131 143
-177.797 79.288 7.787 124 134 154
-176.243 79.309 7.735 120 127 150
-174.555 79.271 7.829 115 136 149
-172.836 79.216 7.960 121 133 156
-171.189 79.195 8.013 117 125 145
-169.692 79.243 7.895 110 127 133
-168.387 79.382 7.558 114 126 140
-167.221 79.591 7.053 115 121 140
-166.036 79.794 6.560 120 134 147
-164.714 79.935 6.218 121 134 154
-163.307 80.037 5.972 137 160 172
-161.911 80.146 5.707 173 198 196
-160.480 80.240 5.479 170 216 255
-158.776 80.198 5.580 184 197 254
-156.574 79.901 6.301 182 186 233
-153.665 79.234 7.918 149 177 229
-150.015 78.166 10.507 136 145 219
-145.915 76.838 13.726 116 133 171
-141.831 75.491 16.992 86 98 126
-138.130 74.320 19.831 69 80 97
-134.967 73.416 22.022 53 63 75
-132.487 72.868 23.351 32 37 49
-130.864 72.784 23.554 31 34 42
-130.011 73.131 22.713 28 31 37
-129.527 73.697 21.342 18 24 29
-128.915 74.201 20.119 25 31 34
-127.659 74.342 19.776 28 36 33
-125.390 73.890 20.872 14 18 19
-121.920 72.712 23.730 27 29 29
-117.531 70.949 28.003 32 37 38
-112.873 68.978 32.781 62 71 70
-108.483 67.124 37.276 77 84 84
-104.676 65.588 40.999 90 97 99
-101.584 64.467 43.717 99 106 108
-99.205 63.774 45.395 110 116 123
-97.412 63.446 46.192 132 131 150
-95.977 63.345 46.437 140 138 166
-94.622 63.295 46.559 136 138 144
-93.202 63.199 46.791 141 142 153
-91.752 63.079 47.080 146 145 163
-90.386 63.015 47.235 136 139 159
-89.165 63.052 47.146 146 147 155
-88.054 63.169 46.863 136 145 158
-86.974 63.312 46.516 139 140 146
-85.848 63.425 46.243 131 133 132
-84.639 63.479 46.111 123 122 114
-83.362 63.483 46.101 126 129 114
-82.064 63.471 46.131 126 119 105
-80.784 63.473 46.126 114 111 75
-79.544 63.507 46.043 107 110 68
-78.340 63.571 45.889 103 98 57
-77.147 63.647 45.705 100 95 42
-75.955 63.725 45.515 91 88 39
-74.790 63.830 45.261 87 84 30
-73.723 64.022 44.794 83 79 33
-72.769 64.322 44.067 78 74 30
-71.832 64.649 43.276 77 76 26
-70.758 64.862 42.759 62 60 15
-69.521 64.930 42.594 65 61 31
-68.258 64.976 42.482 44 41 17
-67.137 65.163 42.030 39 38 15
-66.235 65.572 41.037 31 32 16
-65.617 66.287 39.305 27 27 13
-65.594 67.643 36.016 21 20 11
-66.609 70.152 29.933 16 15 9
-68.093 73.274 22.365 11 12 7
-68.804 75.684 16.523 13 11 7
-68.479 77.039 13.238 21 20 13
-67.471 77.670 11.708 41 38 28
-66.084 77.885 11.187 57 55 40
-64.545 77.927 11.087 61 59 44
-63.034 78.004 10.899 75 72 60
-61.625 78.216 10.385 99 98 76
-60.281 78.524 9.638 111 108 88
-58.921 78.827 8.905 113 111 98
-57.494 79.055 8.353 120 118 103
-56.010 79.214 7.967 124 126 105
-54.493 79.335 7.673 126 124 107
-52.946 79.418 7.470 127 125 110
-51.359 79.447 7.402 118 115 114
-49.741 79.425 7.453 117 119 107
-48.123 79.404 7.506 122 133 106
-46.540 79.438 7.423 131 128 117
-44.996 79.547 7.159 127 126 106
-43.473 79.700 6.788 123 126 109
-41.941 79.850 6.425 126 126 108
-40.385 79.962 6.153 126 128 116
-38.800 80.025 6.000 122 124 126
-37.192 80.045 5.952 128 128 128
-35.575 80.044 5.955 131 133 123
-33.959 80.047 5.947 127 132 126
-32.349 80.064 5.905 120 125 121
-30.741 80.089 5.845 123 128 124
-29.133 80.115 5.781 122 125 122
-27.528 80.156 5.683 120 125 110
-25.931 80.224 5.517 119 121 109
-24.340 80.321 5.283 119 120 115
-22.752 80.445 4.982 114 119 113
-21.166 80.594 4.621 119 121 121
-19.573 80.738 4.271 117 123 119
-17.959 80.817 4.081 130 138 130
-16.323 80.798 4.126 124 127 140
-14.676 80.718 4.320 124 134 144
-13.034 80.646 4.495 132 134 124
-11.400 80.613 4.575 121 125 117
-9.771 80.609 4.585 119 122 119
-8.143 80.615 4.570 119 119 121
-6.516 80.637 4.516 128 131 130
-4.891 80.695 4.375 121 122 131
-3.264 80.789 4.148 119 119 131
-1.634 80.888 3.909 123 127 130
0.000 80.954 3.748 119 128 125
1.636 80.979 3.686 113 120 122
3.272 80.980 3.685 113 120 120
4.908 80.974 3.700 113 117 118
6.544 80.979 3.687 125 127 126
8.184 81.020 3.588 120 122 126
9.832 81.111 3.366 114 116 122
11.488 81.235 3.066 112 113 122
13.146 81.341 2.809 117 118 122
14.797 81.382 2.710 107 109 111
16.436 81.357 2.770 112 115 121
18.070 81.316 2.870 111 118 120
19.713 81.317 2.867 112 114 118
21.373 81.384 2.706 110 117 115
23.051 81.502 2.419 108 110 114
24.741 81.647 2.069 117 118 122
26.436 81.788 1.727 106 113 115
28.123 81.888 1.483 116 122 127
29.790 81.923 1.400 117 118 124
31.438 81.904 1.445 113 114 123
33.082 81.878 1.507 111 112 118
34.735 81.876 1.513 113 116 122
36.391 81.880 1.503 110 114 122
38.039 81.867 1.535 105 112 112
39.679 81.837 1.607 102 103 107
41.319 81.812 1.669 108 112 115
42.972 81.811 1.670 105 109 112
44.645 81.849 1.579 101 104 112
46.341 81.925 1.394 112 115 121
48.056 82.027 1.147 108 113 120
49.778 82.133 0.889 111 112 116
51.508 82.246 0.615 110 115 125
53.234 82.346 0.372 108 116 125
54.917 82.375 0.303 120 123 122
56.527 82.297 0.492 119 158 168
58.106 82.178 0.781 122 124 141
59.675 82.054 1.082 118 120 119
61.105 81.748 1.823 113 110 100
62.144 80.950 3.757 113 109 88
62.617 79.475 7.333 97 93 76
62.595 77.461 12.216 72 72 60
62.287 75.201 17.695 53 53 44
61.898 72.951 23.149 40 38 32
61.557 70.862 28.214 23 22 16
61.351 69.019 32.680 28 27 16
61.439 67.583 36.163 21 20 13
61.963 66.678 38.356 22 21 12
62.802 66.143 39.654 27 26 17
63.678 65.668 40.804 31 29 13
64.506 65.164 42.026 37 34 10
65.381 64.728 43.085 62 60 33
66.401 64.448 43.762 82 79 28
67.569 64.320 44.072 87 81 33
68.827 64.282 44.165 91 86 51
70.113 64.270 44.194 105 101 66
71.405 64.264 44.208 115 112 79
72.718 64.278 44.175 121 115 97
74.070 64.324 44.063 118 120 108
75.439 64.384 43.919 119 125 114
76.782 64.419 43.834 117 117 117
78.104 64.436 43.791 129 130 121
79.424 64.451 43.756 128 131 128
80.676 64.410 43.854 136 137 128
81.746 64.229 44.294 145 147 133
82.550 63.848 45.218 135 136 126
83.147 63.319 46.498 131 127 119
83.746 62.809 47.735 126 122 119
84.597 62.501 48.483 116 110 103
86.004 62.606 48.229 97 101 79
88.336 63.371 46.373 87 89 77
92.249 65.233 41.859 74 76 64
98.956 68.990 32.751 40 48 43
109.561 75.323 17.398 25 27 28
119.783 81.223 3.097 15 18 17
123.752 82.780 -0.679 21 23 25
123.158 81.284 2.947 28 30 32
121.382 79.058 8.345 26 27 33
120.578 77.514 12.086 46 47 53
121.833 77.317 12.565 57 58 67
124.913 78.268 10.259 70 76 83
128.624 79.586 7.063 89 96 96
131.876 80.591 4.628 102 102 104
134.324 81.086 3.428 120 119 112
136.191 81.222 3.098 130 132 109
137.798 81.202 3.146 141 143 106
139.356 81.154 3.262 146 141 88
140.945 81.125 3.333 155 150 97
142.548 81.105 3.382 145 153 93
144.106 81.060 3.491 157 149 85
145.598 80.979 3.688 160 155 86
147.066 80.886 3.913 153 152 77
148.551 80.805 4.108 157 149 83
150.070 80.744 4.256 161 155 82
151.650 80.717 4.322 162 161 79
153.346 80.751 4.239 155 152 84
155.190 80.862 3.970 146 150 94
157.145 81.028 3.569 147 143 97
159.111 81.196 3.162 146 148 97
160.979 81.311 2.883 136 141 98
162.669 81.334 2.826 131 133 110
164.158 81.258 3.010 128 128 114
165.510 81.116 3.355 135 133 102
166.825 80.959 3.736 129 134 102
168.185 80.827 4.056 124 132 115
169.632 80.738 4.271 127 123 120
171.179 80.698 4.367 139 134 124
172.840 80.713 4.332 139 140 103
174.584 80.765 4.205 139 134 106
176.436 80.867 3.960 142 139 101
178.470 81.048 3.519 137 136 91
180.738 81.332 2.832 136 132 100
183.164 81.681 1.985 131 124 97
185.510 81.989 1.239 137 129 107
187.458 82.117 0.929 132 133 96
188.842 81.997 1.219 125 131 93
189.819 81.705 1.928 121 130 93
190.766 81.404 2.656 112 118 97
191.981 81.223 3.097 111 112 105
193.501 81.172 3.219 102 104 90
195.200 81.197 3.159 102 105 88
-188.700 76.266 11.301 111 118 131
-187.389 76.373 11.036 115 117 132
-186.065 76.476 10.781 116 118 134
-184.721 76.573 10.542 121 128 140
-183.389 76.676 10.287 116 126 136
-182.123 76.808 9.959 117 119 135
-180.952 76.984 9.525 119 123 140
-179.857 77.195 9.001 118 123 144
-178.765 77.412 8.466 119 125 141
-177.571 77.587 8.031 113 121 139
-176.213 77.694 7.767 118 123 146
-174.672 77.721 7.701 116 129 150
-173.015 77.697 7.761 121 119 156
-171.379 77.681 7.800 114 130 143
-169.867 77.722 7.698 114 129 137
-168.485 77.824 7.446 111 127 142
-167.171 77.960 7.110 120 128 146
-165.845 78.092 6.782 109 127 128
-164.521 78.228 6.446 111 140 146
-163.280 78.406 6.005 132 139 152
-162.111 78.624 5.467 126 147 174
-160.804 78.778 5.086 181 190 205
-159.080 78.728 5.208 189 191 250
-156.888 78.444 5.912 180 182 254
-154.282 77.944 7.148 158 159 220
-151.347 77.267 8.825 156 168 223
-148.236 76.483 10.763 135 157 200
-145.032 75.635 12.862 116 134 176
-141.703 74.702 15.170 87 108 133
-138.176 73.643 17.789 67 77 101
-134.646 72.559 20.472 55 66 83
-131.614 71.722 22.543 42 49 63
-129.523 71.385 23.378 32 38 45
-128.545 71.660 22.696 27 35 39
-128.547 72.494 20.633 37 42 49
-128.956 73.581 17.945 35 43 47
-128.937 74.446 15.805 38 42 47
-127.614 74.570 15.497 29 31 35
-124.309 73.524 18.084 19 21 22
-119.119 71.324 23.528 35 44 45
-113.186 68.619 30.221 59 69 66
-107.764 66.159 36.307 78 87 86
-103.356 64.266 40.991 92 101 102
-99.977 62.973 44.191 103 107 115
-97.496 62.218 46.059 111 122 127
-95.676 61.871 46.918 132 140 144
-94.204 61.742 47.236 133 140 153
-92.843 61.683 47.382 130 131 152
-91.510 61.642 47.483 133 145 155
-90.231 61.636 47.497 124 149 152
-89.049 61.698 47.345 143 164 173
-87.968 61.833 47.012 137 146 161
-86.934 62.004 46.588 132 142 150
-85.851 62.146 46.237 129 131 133
-84.664 62.215 46.066 122 130 118
-83.383 62.216 46.062 125 135 114
-82.060 62.186 46.137 119 122 105
-80.736 62.154 46.217 121 119 104
-79.436 62.139 46.253 111 110 90
-78.166 62.148 46.232 113 108 73
-76.918 62.175 46.164 103 99 51
-75.679 62.211 46.077 82 77 38
-74.450 62.256 45.965 85 84 32
-73.264 62.339 45.759 89 84 35
-72.146 62.483 45.402 91 85 35
-71.081 62.680 44.915 78 72 24
-70.009 62.879 44.423 70 68 23
-68.905 63.055 43.989 65 63 23
-67.787 63.224 43.569 60 61 24
-66.679 63.411 43.108 47 46 14
-65.559 63.592 42.659 48 48 23
-64.385 63.728 42.322 36 37 18
-63.290 63.949 41.775 14 14 0
-62.830 64.835 39.583 16 15 7
-63.815 67.283 33.525 18 20 10
-65.898 71.024 24.271 12 10 6
-67.119 73.983 16.949 16 15 11
-66.763 75.303 13.684 13 12 5
-65.475 75.608 12.929 36 35 26
-63.897 75.586 12.983 57 55 40
-62.396 75.655 12.812 64 62 51
-61.075 75.952 12.078 76 74 61
-59.854 76.393 10.988 88 84 65
-58.612 76.830 9.906 101 97 78
-57.289 77.181 9.036 113 107 98
-55.896 77.455 8.358 120 113 99
-54.452 77.675 7.815 114 114 100
-52.953 77.825 7.443 116 112 106
-51.385 77.880 7.308 126 123 113
-49.762 77.854 7.372 127 128 107
-48.130 77.811 7.479 128 128 105
-46.529 77.816 7.465 129 131 107
-44.969 77.893 7.276 124 122 106
-43.432 78.018 6.967 115 117 105
-41.897 78.153 6.631 126 125 116
-40.344 78.267 6.350 122 124 110
-38.768 78.343 6.162 120 118 116
-37.170 78.380 6.069 124 128 113
-35.561 78.396 6.031 126 132 123
-33.950 78.408 6.000 122 128 121
-32.339 78.422 5.966 119 124 120
-30.724 78.428 5.951 124 126 123
-29.106 78.425 5.958 121 124 121
-27.493 78.435 5.934 122 125 122
-25.890 78.479 5.825 116 122 115
-24.297 78.559 5.627 112 113 108
-22.707 78.663 5.370 121 119 115
-21.117 78.781 5.078 115 115 113
-19.520 78.894 4.799 110 112 109
-17.910 78.966 4.621 109 115 118
-16.284 78.977 4.592 121 125 128
-14.651 78.955 4.648 115 121 123
-13.022 78.944 4.674 121 120 125
-11.397 78.964 4.626 120 123 120
-9.773 78.998 4.540 120 122 124
-8.147 79.030 4.461 114 117 114
-6.520 79.061 4.386 117 117 115
-4.893 79.103 4.282 115 124 126
-3.264 79.162 4.134 125 128 124
-1.634 79.226 3.978 122 125 124
0.000 79.271 3.866 119 123 124
1.635 79.291 3.817 121 125 128
3.270 79.291 3.816 123 126 136
4.904 79.282 3.838 119 128 127
6.539 79.285 3.830 122 126 127
8.179 79.333 3.712 123 127 130
9.828 79.444 3.437 113 115 117
11.487 79.591 3.073 112 114 114
13.149 79.716 2.763 114 116 120
14.804 79.778 2.612 119 119 121
16.449 79.779 2.610 116 129 129
18.088 79.753 2.674 112 119 119
19.728 79.733 2.723 105 112 114
21.374 79.740 2.706 113 115 117
23.032 79.788 2.585 113 115 117
24.706 79.882 2.355 110 115 116
26.391 79.998 2.066 113 115 117
28.076 80.099 1.817 114 117 116
29.750 80.158 1.670 113 116 115
31.414 80.188 1.596 115 117 123
33.080 80.218 1.523 109 113 118
34.749 80.253 1.437 106 117 118
36.409 80.266 1.404 104 111 113
38.052 80.241 1.465 107 116 116
39.681 80.189 1.593 111 113 114
41.308 80.138 1.721 106 110 111
42.948 80.115 1.778 105 107 111
44.614 80.141 1.713 106 108 110
46.312 80.219 1.520 104 113 112
48.031 80.327 1.252 109 114 112
49.751 80.430 0.998 110 115 116
51.466 80.519 0.777 108 112 115
53.176 80.596 0.588 110 111 115
54.869 80.640 0.478 119 120 117
56.534 80.645 0.467 117 117 115
58.190 80.634 0.493 119 124 108
59.781 80.539 0.729 118 111 97
61.086 80.072 1.883 105 105 89
61.830 78.915 4.746 102 99 86
61.930 77.015 9.446 85 83 68
61.608 74.700 15.175 67 66 60
61.193 72.387 20.898 44 43 35
60.905 70.330 25.987 16 15 11
60.770 68.543 30.409 23 24 15
60.723 66.933 34.392 19 21 11
60.802 65.531 37.861 17 19 7
61.156 64.480 40.462 28 28 14
61.846 63.820 42.095 29 28 10
62.770 63.424 43.074 51 48 22
63.816 63.165 43.715 64 60 29
64.952 63.004 44.114 76 72 37
66.179 62.935 44.285 74 72 41
67.478 62.937 44.280 88 88 58
68.810 62.968 44.203 105 106 74
70.126 62.983 44.165 110 106 89
71.413 62.973 44.189 110 107 97
72.700 62.963 44.214 122 117 105
74.022 62.984 44.163 123 126 109
75.370 63.025 44.063 120 124 112
76.705 63.054 43.990 127 123 122
78.033 63.076 43.934 127 130 125
79.362 63.100 43.877 132 132 132
80.624 63.069 43.953 136 137 128
81.708 62.902 44.366 135 133 131
82.511 62.528 45.291 135 134 127
83.037 61.958 46.702 132 128 125
83.449 61.322 48.274 115 116 99
84.028 60.827 49.501 107 108 99
85.146 60.729 49.742 94 95 86
87.294 61.359 48.184 75 76 69
91.410 63.334 43.298 56 59 54
98.793 67.486 33.025 18 23 22
108.590 73.147 19.017 21 23 25
115.366 76.647 10.357 25 27 28
117.597 77.074 9.302 20 24 25
117.908 76.247 11.348 24 25 29
118.208 75.435 13.355 37 39 43
119.548 75.299 13.692 47 48 56
122.284 76.035 11.871 67 68 74
125.917 77.303 8.734 90 91 98
129.475 78.494 5.788 102 105 116
132.304 79.219 3.994 125 125 127
134.395 79.490 3.324 130 129 121
136.071 79.511 3.271 147 140 124
137.607 79.452 3.418 150 142 106
139.139 79.391 3.568 161 155 93
140.707 79.352 3.664 161 156 85
142.286 79.320 3.743 155 153 76
143.822 79.266 3.879 159 149 98
145.300 79.180 4.090 155 149 87
146.764 79.090 4.315 162 149 101
148.255 79.015 4.498 160 153 87
149.787 78.964 4.625 156 152 80
151.388 78.950 4.660 158 150 86
153.125 79.006 4.521 153 150 87
155.033 79.149 4.169 138 142 86
157.045 79.341 3.693 140 144 90
159.023 79.511 3.271 137 140 93
160.855 79.607 3.035 138 134 88
162.491 79.604 3.041 139 143 87
163.926 79.504 3.289 130 134 80
165.212 79.334 3.709 137 137 94
166.477 79.158 4.145 127 132 87
167.850 79.036 4.447 118 123 92
169.379 78.989 4.563 117 119 107
171.026 78.998 4.541 118 122 100
172.758 79.045 4.426 127 123 104
174.530 79.109 4.266 121 119 106
176.420 79.225 3.978 124 121 97
178.564 79.453 3.416 120 128 93
180.987 79.799 2.559 116 117 99
183.498 80.177 1.624 116 119 98
185.768 80.444 0.963 118 135 115
187.571 80.506 0.810 127 154 129
188.869 80.352 1.190 118 150 107
189.806 80.049 1.941 109 125 97
190.655 79.714 2.770 114 117 82
191.698 79.465 3.386 108 115 90
193.037 79.341 3.692 107 111 86
194.594 79.309 3.770 109 109 98
-188.702 74.695 11.298 120 125 139
-187.318 74.770 11.108 115 120 127
-185.914 74.838 10.934 124 127 140
-184.491 74.900 10.778 115 118 130
-183.084 74.970 10.603 111 120 138
-181.747 75.070 10.351 115 119 136
-180.533 75.222 9.965 112 125 139
-179.451 75.433 9.433 119 132 146
-178.440 75.677 8.815 122 126 159
-177.384 75.908 8.234 116 131 149
-176.172 76.074 7.813 117 121 140
-174.717 76.138 7.651 114 129 135
-173.062 76.115 7.709 120 132 142
-171.374 76.077 7.805 115 118 140
-169.799 76.089 7.775 113 125 135
-168.324 76.146 7.630 110 135 138
-166.870 76.215 7.457 122 126 143
-165.420 76.286 7.277 118 131 147
-164.089 76.414 6.954 118 128 141
-162.968 76.643 6.375 122 130 141
-161.943 76.923 5.668 124 143 152
-160.684 77.096 5.231 134 144 181
-158.900 77.018 5.428 148 177 210
-156.666 76.718 6.186 154 176 207
-154.250 76.322 7.188 167 168 215
-151.900 75.950 8.127 151 170 207
-149.752 75.673 8.827 155 156 204
-147.657 75.416 9.474 143 166 208
-145.272 75.005 10.514 122 153 217
-142.214 74.232 12.466 92 115 153
-138.434 73.062 15.421 79 92 120
-134.419 71.740 18.761 51 65 81
-130.933 70.674 21.455 46 56 66
-128.550 70.185 22.689 35 47 57
-127.364 70.346 22.283 41 48 59
-127.027 70.986 20.668 41 49 57
-127.047 71.842 18.504 40 46 53
-126.975 72.666 16.422 41 44 52
-126.106 73.049 15.455 26 40 40
-123.289 72.299 17.350 18 28 22
-117.941 70.027 23.089 22 31 33
-111.442 67.006 30.721 55 62 62
-105.563 64.285 37.595 62 71 72
-101.010 62.311 42.582 94 99 97
-97.756 61.097 45.648 95 101 106
-95.500 60.483 47.200 110 122 122
-93.867 60.252 47.784 120 127 141
-92.544 60.217 47.872 126 131 145
-91.345 60.262 47.758 137 150 152
-90.187 60.336 47.572 141 141 157
-89.072 60.441 47.306 132 144 154
-88.023 60.595 46.917 148 149 158
-87.013 60.781 46.448 136 151 159
-85.950 60.934 46.060 134 141 154
-84.765 61.005 45.881 124 135 140
-83.468 60.996 45.906 126 136 128
-82.109 60.940 46.046 114 118 108
-80.726 60.865 46.237 118 122 109
-79.348 60.791 46.422 122 119 97
-78.002 60.739 46.553 112 107 79
-76.705 60.725 46.590 103 103 64
-75.445 60.740 46.552 100 99 51
-74.202 60.769 46.478 94 91 39
-72.976 60.813 46.366 94 91 39
-71.787 60.891 46.171 95 89 41
-70.654 61.019 45.846 78 75 26
-69.558 61.186 45.426 84 81 30
-68.467 61.362 44.981 78 77 27
-67.348 61.519 44.583 65 63 23
-66.187 61.644 44.267 62 56 22
-64.964 61.716 44.087 54 55 18
-63.656 61.707 44.109 54 53 21
-62.331 61.682 44.172 40 39 15
-61.270 61.922 43.566 23 23 10
-61.133 63.126 40.524 24 24 11
-62.637 66.117 32.969 17 19 7
-64.791 69.945 23.297 16 16 5
-65.537 72.396 17.105 13 12 5
-64.701 73.174 15.139 20 19 10
-63.206 73.226 15.007 28 27 20
-61.752 73.331 14.744 40 38 32
-60.545 73.740 13.708 50 50 38
-59.451 74.314 12.261 67 64 53
-58.304 74.850 10.906 80 77 64
-57.053 75.278 9.824 95 93 75
-55.731 75.635 8.922 99 94 78
-54.359 75.942 8.146 111 107 92
-52.913 76.163 7.589 112 112 96
-51.371 76.254 7.358 119 117 104
-49.754 76.236 7.403 118 115 105
-48.118 76.186 7.529 117 119 107
-46.509 76.179 7.548 130 126 118
-44.941 76.239 7.396 125 122 112
-43.397 76.347 7.125 123 123 110
-41.856 76.468 6.818 121 125 115
-40.301 76.573 6.553 118 120 108
-38.727 76.648 6.363 125 130 110
-37.135 76.692 6.253 124 128 117
-35.532 76.717 6.188 121 125 115
-33.926 76.738 6.135 128 131 128
-32.317 76.753 6.097 125 126 123
-30.700 76.750 6.106 124 125 118
-29.075 76.727 6.164 122 125 124
-27.455 76.712 6.202 122 127 123
-25.849 76.738 6.136 118 121 115
-24.256 76.811 5.952 118 121 117
-22.668 76.909 5.702 118 118 118
-21.077 77.013 5.440 118 120 119
-19.480 77.110 5.197 113 116 113
-17.874 77.183 5.011 115 121 121
-16.258 77.225 4.905 120 124 125
-14.637 77.251 4.839 118 120 121
-13.017 77.289 4.744 115 117 121
-11.398 77.346 4.599 116 123 121
-9.778 77.410 4.439 110 117 115
-8.154 77.462 4.307 107 116 116
-6.526 77.500 4.212 115 117 119
-4.896 77.527 4.143 119 122 128
-3.265 77.551 4.082 115 118 117
-1.633 77.577 4.017 114 118 119
0.000 77.605 3.946 119 121 123
1.634 77.633 3.874 119 121 123
3.270 77.652 3.827 123 127 130
4.904 77.652 3.826 124 125 129
6.539 77.652 3.826 123 123 125
8.178 77.694 3.720 115 118 117
9.828 77.804 3.444 113 121 125
11.487 77.949 3.075 114 123 123
13.149 78.073 2.763 115 117 121
14.806 78.141 2.591 118 119 123
16.456 78.166 2.528 117 121 129
18.102 78.167 2.526 119 120 127
19.742 78.147 2.576 112 119 121
21.379 78.114 2.659 108 112 113
23.019 78.101 2.693 115 114 117
24.675 78.136 2.603 110 112 113
26.346 78.215 2.405 108 110 114
28.024 78.301 2.186 111 112 116
29.701 78.377 1.994 110 112 113
31.381 78.451 1.807 103 110 108
33.065 78.529 1.610 106 110 113
34.745 78.591 1.455 112 120 124
36.406 78.604 1.422 114 115 126
38.042 78.565 1.519 110 113 124
39.664 78.502 1.680 112 115 123
41.286 78.443 1.827 108 112 115
42.923 78.418 1.892 110 112 113
44.590 78.445 1.822 111 113 114
46.289 78.526 1.618 108 111 112
48.008 78.634 1.346 111 111 113
49.723 78.727 1.110 108 115 112
51.420 78.789 0.954 108 114 114
53.109 78.834 0.841 107 109 111
54.796 78.873 0.741 114 115 108
56.493 78.924 0.612 121 119 108
58.185 78.965 0.509 122 124 98
59.734 78.816 0.886 121 116 102
60.846 78.113 2.661 110 105 93
61.279 76.599 6.486 94 96 72
61.077 74.389 12.070 74 74 63
60.574 71.931 18.278 42 41 34
60.175 69.715 23.878 30 31 22
60.150 68.027 28.142 22 19 13
60.427 66.751 31.366 16 15 7
60.672 65.498 34.531 22 22 10
60.771 64.147 37.944 24 24 11
60.959 62.947 40.975 37 39 15
61.481 62.136 43.026 45 44 21
62.362 61.712 44.096 45 42 16
63.482 61.539 44.533 68 64 31
64.734 61.497 44.638 80 77 40
66.055 61.522 44.577 94 94 53
67.418 61.584 44.420 100 103 70
68.794 61.655 44.240 110 109 86
70.137 61.695 44.139 107 106 97
71.425 61.685 44.163 116 118 106
72.679 61.648 44.259 122 125 106
73.954 61.628 44.307 127 126 119
75.261 61.636 44.287 129 130 123
76.573 61.647 44.259 134 132 130
77.884 61.658 44.231 130 130 128
79.206 61.677 44.186 132 135 131
80.491 61.666 44.211 137 136 128
81.651 61.562 44.475 134 131 132
82.566 61.279 45.189 127 125 123
83.180 60.785 46.437 121 119 115
83.588 60.158 48.022 110 114 103
84.057 59.593 49.450 93 99 88
85.016 59.386 49.972 82 83 78
87.181 60.016 48.381 50 53 52
91.932 62.383 42.402 35 38 35
99.832 66.789 31.270 23 23 23
107.280 70.775 21.200 21 24 23
111.280 72.408 17.074 15 15 15
113.352 72.760 16.186 21 23 25
115.085 72.887 15.864 35 39 42
117.163 73.227 15.006 43 45 51
119.895 73.961 13.150 63 64 73
123.259 75.062 10.370 71 74 80
126.810 76.246 7.378 95 99 102
129.951 77.158 5.073 109 109 109
132.396 77.640 3.858 135 136 115
134.279 77.784 3.494 146 144 117
135.884 77.765 3.541 149 144 109
137.399 77.696 3.715 157 146 120
138.907 77.624 3.896 155 144 100
140.437 77.567 4.042 157 151 94
141.975 77.515 4.172 157 162 85
143.487 77.451 4.336 157 155 83
144.968 77.371 4.537 152 148 90
146.460 77.298 4.720 163 151 85
147.993 77.249 4.845 168 158 93
149.562 77.219 4.920 158 155 88
151.181 77.216 4.927 153 148 95
152.925 77.276 4.777 153 152 89
154.839 77.419 4.415 148 148 89
156.844 77.605 3.946 141 139 94
158.787 77.756 3.563 133 136 88
160.590 77.837 3.360 138 141 92
162.240 77.842 3.346 136 135 85
163.706 77.760 3.553 141 136 99
164.986 77.592 3.977 139 143 91
166.227 77.409 4.439 135 136 85
167.618 77.300 4.717 118 124 90
169.217 77.286 4.750 117 123 89
170.935 77.328 4.645 117 122 93
172.696 77.387 4.495 121 124 93
174.443 77.439 4.363 128 124 103
176.261 77.522 4.154 126 127 106
178.305 77.702 3.701 107 112 95
180.510 77.948 3.080 126 131 113
182.485 78.091 2.719 130 155 144
183.899 77.993 2.966 145 190 193
185.027 77.777 3.511 156 208 211
186.296 77.623 3.899 162 207 182
187.707 77.531 4.132 132 192 131
189.091 77.430 4.388 115 137 100
190.481 77.332 4.635 112 116 94
191.997 77.287 4.749 107 112 95
193.658 77.300 4.715 98 102 94
-188.793 73.157 11.207 111 115 134
-187.355 73.210 11.071 120 125 137
-185.891 73.254 10.958 120 125 151
-184.404 73.289 10.867 120 125 139
-182.932 73.331 10.760 123 127 142
-181.536 73.404 10.571 116 118 134
-180.291 73.540 10.220 115 118 142
-179.223 73.751 9.674 114 122 140
-178.260 74.010 9.007 117 120 142
-177.254 74.255 8.374 118 127 143
-176.058 74.424 7.937 114 121 135
-174.566 74.471 7.817 111 120 138
-172.831 74.413 7.966 112 130 147
-171.050 74.335 8.169 117 123 137
-169.400 74.312 8.227 114 126 140
-167.859 74.338 8.161 123 129 150
-166.339 74.373 8.071 120 133 149
-164.846 74.421 7.946 114 127 155
-163.528 74.549 7.615 128 137 150
-162.455 74.794 6.984 126 132 150
-161.465 75.081 6.243 126 147 142
-160.212 75.251 5.804 117 144 164
-158.450 75.183 5.980 134 152 182
-156.288 74.922 6.654 136 155 187
-154.062 74.624 7.423 134 155 164
-152.089 74.444 7.887 151 152 206
-150.531 74.465 7.832 147 181 210
-149.199 74.600 7.485 155 172 223
-147.690 74.648 7.361 152 153 219
-145.498 74.348 8.135 140 177 219
-142.305 73.524 10.260 137 148 192
-138.261 72.237 13.581 90 124 142
-134.060 70.838 17.192 58 76 95
-130.428 69.711 20.100 58 71 90
-127.610 68.998 21.939 55 66 81
-125.524 68.669 22.790 42 49 65
-124.103 68.700 22.710 42 48 57
-123.460 69.167 21.503 46 49 60
-123.405 69.980 19.407 36 40 45
-122.886 70.545 17.947 32 38 43
-119.963 69.728 20.056 28 37 36
-114.151 67.190 26.605 40 47 49
-107.527 64.103 34.574 58 64 64
-102.048 61.627 40.964 79 89 88
-98.168 60.063 44.998 83 95 95
-95.551 59.241 47.119 97 108 111
-93.736 58.902 47.996 108 113 123
-92.365 58.835 48.167 129 140 143
-91.210 58.907 47.983 137 139 154
-90.135 59.032 47.659 136 154 155
-89.105 59.191 47.249 132 144 152
-88.127 59.390 46.736 139 142 168
-87.177 59.614 46.158 130 146 148
-86.163 59.800 45.679 144 155 167
-85.004 59.889 45.448 142 142 167
-83.696 59.875 45.485 131 140 155
-82.289 59.788 45.707 114 123 123
-80.829 59.659 46.041 113 123 104
-79.357 59.518 46.406 128 127 118
-77.921 59.399 46.713 121 122 99
-76.560 59.334 46.880 104 106 78
-75.272 59.324 46.905 105 103 58
-74.022 59.345 46.851 101 101 47
-72.785 59.377 46.768 90 88 43
-71.569 59.428 46.637 83 80 31
-70.398 59.518 46.404 91 86 31
-69.264 59.644 46.081 95 94 28
-68.130 59.775 45.743 88 83 32
-66.959 59.877 45.480 85 79 31
-65.744 59.943 45.308 78 75 26
-64.492 59.978 45.219 73 71 31
-63.199 59.974 45.227 55 51 18
-61.906 59.971 45.235 52 50 19
-60.763 60.117 44.860 45 44 17
-60.196 60.850 42.967 38 37 14
-60.811 62.838 37.838 24 25 9
-62.415 65.961 29.777 20 20 6
-63.591 68.766 22.538 14 11 5
-63.428 70.224 18.778 15 13 9
-62.316 70.675 17.612 12 13 8
-61.071 70.995 16.787 16 14 13
-60.060 71.610 15.200 21 19 15
-59.107 72.328 13.346 38 38 29
-58.018 72.914 11.834 56 54 41
-56.791 73.355 10.697 66 63 52
-55.509 73.747 9.685 80 78 60
-54.193 74.117 8.731 96 92 77
-52.800 74.400 8.000 104 104 86
-51.293 74.535 7.651 105 102 92
-49.695 74.543 7.632 110 108 90
-48.070 74.508 7.721 120 117 107
-46.468 74.509 7.719 127 125 112
-44.902 74.570 7.561 121 120 111
-43.358 74.672 7.297 113 117 107
-41.815 74.784 7.008 120 124 116
-40.258 74.880 6.761 121 121 105
-38.684 74.951 6.578 124 125 109
-37.095 74.996 6.461 124 124 115
-35.497 75.028 6.380 130 133 105
-33.896 75.054 6.311 126 123 115
-32.290 75.075 6.259 126 130 121
-30.674 75.071 6.268 125 126 119
-29.048 75.041 6.347 119 122 117
-27.424 75.013 6.418 122 125 122
-25.817 75.031 6.372 121 121 117
-24.228 75.106 6.179 122 128 121
-22.644 75.212 5.905 115 120 116
-21.057 75.318 5.630 114 114 114
-19.461 75.411 5.391 121 124 119
-17.857 75.485 5.199 121 124 123
-16.246 75.542 5.053 111 123 121
-14.630 75.591 4.927 110 118 122
-13.015 75.649 4.776 119 123 124
-11.399 75.722 4.589 117 119 118
-9.780 75.795 4.399 113 123 117
-8.156 75.854 4.248 113 121 116
-6.528 75.891 4.152 117 117 115
-4.897 75.907 4.110 117 122 121
-3.265 75.910 4.103 115 119 120
-1.633 75.916 4.087 114 117 116
0.000 75.943 4.019 112 114 118
1.634 75.991 3.895 115 118 117
3.270 76.036 3.778 121 123 125
4.907 76.053 3.735 123 128 126
6.542 76.053 3.734 118 119 123
8.181 76.083 3.658 115 119 122
9.829 76.171 3.429 117 118 122
11.485 76.291 3.120 117 119 118
13.143 76.392 2.859 123 130 126
14.798 76.457 2.692 120 121 128
16.453 76.506 2.565 117 120 131
18.107 76.545 2.464 120 123 131
19.755 76.551 2.450 112 117 113
21.390 76.510 2.555 105 114 115
23.020 76.459 2.685 104 111 113
24.660 76.446 2.721 105 107 109
26.316 76.480 2.632 106 110 111
27.983 76.542 2.473 110 112 113
29.659 76.619 2.273 108 111 112
31.346 76.715 2.025 104 106 107
33.038 76.814 1.771 104 111 113
34.720 76.879 1.602 113 113 127
36.375 76.884 1.589 106 109 115
38.008 76.842 1.699 110 114 122
39.631 76.786 1.843 105 114 115
41.261 76.745 1.948 99 108 107
42.908 76.739 1.965 107 111 114
44.580 76.776 1.869 109 114 114
46.277 76.854 1.668 102 107 115
47.990 76.949 1.421 106 110 111
49.695 77.028 1.218 107 111 112
51.379 77.069 1.113 102 107 107
53.048 77.085 1.071 109 109 109
54.712 77.094 1.047 112 116 106
56.383 77.112 1.001 121 115 108
58.008 77.068 1.115 120 120 95
59.398 76.722 2.008 109 101 95
60.255 75.726 4.578 104 100 85
60.428 73.945 9.174 77 77 61
60.055 71.604 15.215 57 56 47
59.461 69.124 21.616 39 40 35
59.079 67.004 27.086 22 18 15
59.315 65.670 30.529 16 15 9
60.052 64.940 32.414 15 14 7
60.638 64.084 34.623 21 21 5
60.827 62.855 37.794 29 27 12
60.957 61.619 40.983 39 38 15
61.400 60.747 43.234 50 48 17
62.248 60.302 44.381 54 49 19
63.377 60.144 44.790 79 77 37
64.646 60.121 44.849 92 88 46
65.972 60.151 44.771 108 101 71
67.340 60.217 44.601 105 105 80
68.733 60.303 44.378 118 115 95
70.106 60.369 44.209 114 111 103
71.412 60.376 44.191 121 119 108
72.653 60.328 44.315 133 131 118
73.889 60.278 44.445 136 137 128
75.154 60.253 44.509 134 138 130
76.427 60.235 44.556 132 133 128
77.692 60.211 44.616 135 138 133
78.971 60.199 44.648 132 134 133
80.273 60.205 44.633 133 137 124
81.553 60.194 44.660 125 126 119
82.683 60.074 44.970 122 121 124
83.535 59.760 45.782 108 107 112
84.121 59.267 47.053 107 107 103
84.675 58.767 48.344 91 93 83
85.723 58.620 48.723 64 67 64
88.398 59.573 46.264 44 51 48
94.300 62.642 38.343 26 28 29
101.680 66.593 28.147 21 24 23
106.560 68.820 22.400 15 17 19
109.388 69.679 20.184 26 27 36
111.898 70.314 18.545 26 27 31
114.732 71.134 16.429 42 43 50
117.879 72.124 13.875 57 60 66
121.180 73.180 11.148 70 76 81
124.467 74.201 8.513 82 83 89
127.525 75.062 6.291 104 106 105
130.150 75.650 4.775 119 119 119
132.295 75.947 4.007 139 133 130
134.090 76.039 3.771 155 143 108
135.697 76.023 3.812 149 138 108
137.210 75.955 3.986 151 145 97
138.682 75.867 4.213 157 153 93
140.157 75.783 4.432 155 147 86
141.646 75.707 4.627 151 149 77
143.139 75.636 4.810 155 151 79
144.646 75.573 4.972 155 152 82
146.199 75.536 5.069 156 150 91
147.802 75.525 5.097 155 146 101
149.423 75.524 5.100 145 143 84
151.049 75.524 5.099 148 143 104
152.745 75.560 5.006 140 142 91
154.557 75.652 4.770 129 129 84
156.401 75.757 4.499 139 135 89
158.163 75.821 4.334 138 141 92
159.889 75.866 4.218 146 148 95
161.643 75.923 4.069 136 147 109
163.316 75.942 4.021 136 142 94
164.765 75.857 4.240 141 137 93
166.096 75.720 4.593 129 133 93
167.540 75.637 4.807 118 124 88
169.166 75.637 4.809 114 119 87
170.869 75.671 4.721 118 115 95
172.563 75.700 4.645 109 110 90
174.194 75.701 4.643 119 120 97
175.811 75.696 4.654 122 125 106
177.512 75.727 4.575 119 131 113
179.061 75.694 4.661 136 156 142
179.774 75.311 5.650 156 194 200
179.433 74.497 7.751 187 226 253
179.388 73.819 9.499 192 240 255
180.827 73.758 9.656 179 255 255
183.314 74.123 8.716 168 236 211
185.908 74.523 7.682 138 207 150
188.207 74.800 6.967 117 154 110
190.313 74.996 6.462 108 116 95
192.372 75.170 6.012 94 100 91
-188.786 71.581 11.214 122 123 136
-187.349 71.633 11.077 119 121 136
-185.897 71.681 10.952 126 127 145
-184.424 71.721 10.847 121 128 144
-182.945 71.759 10.747 124 136 147
-181.512 71.816 10.596 130 134 149
-180.230 71.934 10.284 121 131 155
-179.148 72.135 9.754 121 127 146
-178.172 72.382 9.102 113 115 130
-177.111 72.600 8.528 118 123 144
-175.801 72.718 8.217 107 113 132
-174.174 72.706 8.249 112 122 146
-172.328 72.601 8.525 120 126 147
-170.480 72.494 8.808 113 124 143
-168.806 72.459 8.899 123 130 146
-167.277 72.487 8.827 125 131 147
-165.788 72.532 8.706 120 131 150
-164.338 72.596 8.539 118 121 147
