ply
format ascii 1.0
comment PLY generated with DepthInition by Giancarlo Todone
element vertex 1433
property float x
property float y
property float z
property uchar red
property uchar green
property uchar blue
end_header
25.635 -38.453 11.251 147 147 79
26.757 -38.463 11.216 167 153 85
27.897 -38.498 11.093 154 143 99
29.053 -38.551 10.908 133 137 85
30.216 -38.609 10.706 123 141 110
31.379 -38.663 10.520 132 152 143
32.532 -38.702 10.385 158 190 186
33.648 -38.695 10.408 173 206 214
34.710 -38.629 10.639 185 216 235
35.747 -38.540 10.948 190 232 252
36.829 -38.503 11.078 211 241 255
38.003 -38.562 10.871 208 243 255
39.254 -38.693 10.416 202 236 255
40.505 -38.817 9.983 186 229 249
41.686 -38.869 9.802 176 219 223
42.779 -38.839 9.908 175 201 197
43.800 -38.746 10.230 168 180 151
44.775 -38.618 10.675 172 166 109
45.736 -38.485 11.137 167 158 102
46.715 -38.373 11.530 159 152 84
47.717 -38.284 11.838 159 151 86
48.731 -38.210 12.097 138 136 79
49.749 -38.141 12.337 141 132 90
50.774 -38.081 12.546 127 129 90
51.813 -38.033 12.712 119 127 92
52.861 -37.994 12.847 123 124 87
53.912 -37.959 12.970 122 124 110
54.959 -37.921 13.100 131 137 110
55.990 -37.876 13.258 144 144 112
56.998 -37.816 13.466 153 148 107
57.991 -37.749 13.700 149 150 99
58.992 -37.690 13.906 147 145 102
60.018 -37.648 14.052 141 144 98
61.064 -37.620 14.150 145 148 90
62.130 -37.605 14.200 146 141 90
63.229 -37.610 14.182 142 144 86
64.360 -37.634 14.097 135 136 88
65.491 -37.657 14.018 142 141 91
66.576 -37.654 14.031 146 134 97
67.598 -37.615 14.164 135 136 104
68.574 -37.552 14.383 105 126 121
69.501 -37.466 14.685 103 108 118
70.329 -37.328 15.162 92 99 115
70.982 -37.104 15.942 73 80 105
71.427 -36.779 17.071 68 83 103
71.771 -36.413 18.345 50 62 74
72.291 -36.146 19.276 54 59 71
73.280 -36.117 19.376 39 47 53
74.875 -36.383 18.452 25 27 43
76.902 -36.849 16.830 27 33 38
79.207 -37.434 14.797 13 20 20
81.740 -38.108 12.449 15 15 15
84.441 -38.843 9.894 9 9 9
86.536 -39.283 8.364 13 14 11
87.024 -38.991 9.378 15 14 17
85.862 -37.977 12.905 32 34 24
83.742 -36.571 17.798 60 61 54
81.495 -35.145 22.758 75 78 70
79.817 -33.996 26.753 92 95 94
79.052 -33.260 29.314 104 104 104
79.130 -32.892 30.595 117 117 119
79.775 -32.765 31.035 122 123 132
80.692 -32.751 31.082 126 130 129
81.695 -32.773 31.007 122 123 132
82.686 -32.789 30.951 119 126 128
83.668 -32.802 30.908 128 133 131
84.658 -32.817 30.855 124 136 134
85.671 -32.841 30.772 132 141 138
86.703 -32.871 30.666 135 136 128
87.732 -32.900 30.567 120 132 128
88.726 -32.914 30.515 123 130 118
89.687 -32.917 30.506 123 124 117
90.670 -32.928 30.469 106 120 90
91.704 -32.956 30.371 94 92 63
92.732 -32.982 30.280 90 85 46
93.700 -32.986 30.265 87 89 36
94.630 -32.977 30.297 82 80 24
95.576 -32.974 30.309 91 90 27
96.563 -32.984 30.272 93 86 32
97.571 -33.002 30.211 86 82 24
98.567 -33.015 30.165 92 88 28
99.553 -33.025 30.131 92 91 30
100.569 -33.044 30.064 81 79 20
101.644 -33.082 29.931 91 90 29
102.759 -33.132 29.757 92 84 37
103.846 -33.173 29.616 96 87 44
104.846 -33.185 29.574 92 86 36
105.751 -33.167 29.635 89 86 33
106.608 -33.135 29.748 78 76 31
107.465 -33.103 29.859 77 76 24
108.329 -33.074 29.960 85 78 33
109.184 -33.043 30.069 84 76 40
110.030 -33.009 30.186 89 83 19
110.884 -32.978 30.293 87 82 31
111.758 -32.954 30.376 87 82 31
112.656 -32.938 30.435 88 86 29
113.576 -32.927 30.470 97 89 39
-132.200 -39.109 12.800 110 111 74
-130.848 -39.035 13.052 120 121 87
-129.497 -38.959 13.308 125 126 78
-128.185 -38.894 13.528 123 123 93
-126.932 -38.846 13.691 119 120 97
-125.723 -38.810 13.811 134 127 113
-124.542 -38.783 13.903 124 122 104
-123.400 -38.767 13.956 127 128 107
-122.296 -38.763 13.969 116 117 99
-121.203 -38.763 13.970 124 117 92
-120.104 -38.761 13.978 120 117 91
-119.007 -38.759 13.983 121 125 87
-117.886 -38.750 14.015 116 114 94
-116.689 -38.715 14.134 118 121 88
-115.417 -38.654 14.340 123 127 101
-114.140 -38.590 14.555 125 122 112
-112.933 -38.549 14.693 115 118 97
-111.816 -38.538 14.730 121 122 92
-110.753 -38.546 14.703 130 132 88
-109.686 -38.553 14.680 118 115 105
-108.577 -38.545 14.708 119 119 90
-107.440 -38.527 14.769 117 116 91
-106.328 -38.517 14.803 118 116 99
-105.297 -38.537 14.735 119 120 97
-104.392 -38.603 14.510 135 134 98
-103.613 -38.718 14.121 121 128 110
-102.934 -38.874 13.595 123 143 120
-102.312 -39.054 12.985 125 126 134
-101.637 -39.219 12.430 108 112 104
-100.742 -39.300 12.153 122 127 82
-99.520 -39.255 12.307 165 186 125
-98.032 -39.103 12.822 105 114 113
-96.453 -38.910 13.474 103 187 120
-94.947 -38.743 14.039 67 211 151
-93.616 -38.644 14.374 53 226 154
-92.495 -38.630 14.419 75 243 159
-91.533 -38.684 14.238 77 238 170
-90.607 -38.754 14.002 102 201 152
-89.586 -38.784 13.899 106 157 135
-88.480 -38.778 13.918 114 131 136
-87.418 -38.792 13.874 139 132 118
-86.452 -38.849 13.681 104 115 100
-85.469 -38.899 13.510 127 119 144
-84.352 -38.889 13.543 99 109 133
-83.132 -38.831 13.740 96 108 116
-81.912 -38.772 13.941 71 108 93
-80.760 -38.743 14.038 119 115 155
-79.740 -38.778 13.921 110 111 156
-78.856 -38.880 13.574 85 105 110
-77.989 -38.994 13.188 90 99 96
-77.002 -39.051 12.997 101 101 101
-75.904 -39.052 12.993 110 147 114
-74.912 -39.108 12.803 147 134 147
-74.216 -39.323 12.076 134 136 151
-73.741 -39.664 10.925 110 134 130
-73.124 -39.937 10.002 111 124 138
-72.047 -39.964 9.912 130 130 98
-70.590 -39.777 10.544 108 141 89
-69.073 -39.550 11.311 73 156 124
-67.686 -39.391 11.847 57 204 164
-66.385 -39.278 12.230 30 228 171
-65.099 -39.169 12.596 26 242 173
-63.898 -39.110 12.798 30 244 170
-62.877 -39.160 12.628 31 244 170
-62.006 -39.307 12.131 42 232 172
-61.094 -39.434 11.703 56 191 145
-59.942 -39.406 11.796 139 154 185
-58.551 -39.218 12.431 95 110 132
-57.141 -39.009 13.137 119 123 140
-55.888 -38.902 13.500 95 120 118
-54.795 -38.904 13.493 92 102 98
-53.782 -38.965 13.288 108 107 99
-52.795 -39.046 13.012 104 106 105
-51.810 -39.133 12.718 104 105 111
-50.808 -39.211 12.457 98 102 103
-49.763 -39.257 12.300 117 119 116
-48.662 -39.262 12.284 107 112 108
-47.532 -39.241 12.354 103 111 104
-46.415 -39.232 12.386 99 104 102
-45.343 -39.260 12.289 98 102 101
-44.308 -39.324 12.075 101 108 105
-43.275 -39.391 11.847 105 109 108
-42.205 -39.428 11.721 110 118 111
-41.082 -39.417 11.760 103 109 105
-39.907 -39.353 11.976 111 110 99
-38.681 -39.233 12.380 107 109 81
-37.390 -39.040 13.034 127 123 81
-36.023 -38.752 14.008 120 111 82
-34.588 -38.372 15.293 101 105 65
-33.136 -37.946 16.733 67 69 57
-31.721 -37.536 18.118 47 50 35
-30.311 -37.105 19.575 22 22 22
-28.760 -36.463 21.744 19 21 22
-26.985 -35.480 25.068 11 12 9
-25.224 -34.440 28.582 9 9 7
-23.780 -33.767 30.858 10 12 11
-22.635 -33.480 31.827 23 24 5
-21.633 -33.391 32.131 50 47 21
-20.680 -33.369 32.203 67 63 19
-19.742 -33.373 32.191 80 73 30
-18.814 -33.395 32.115 88 84 35
-17.895 -33.435 31.981 87 82 29
-16.976 -33.481 31.825 101 101 56
-16.049 -33.514 31.712 101 100 62
-15.110 -33.525 31.675 105 109 85
-14.164 -33.520 31.691 105 107 95
-13.217 -33.514 31.715 123 122 118
-12.275 -33.520 31.692 122 135 115
-11.339 -33.545 31.608 139 135 130
-10.402 -33.571 31.519 133 134 131
-9.458 -33.577 31.500 137 135 117
-8.510 -33.569 31.527 132 130 113
-7.573 -33.606 31.401 120 120 104
-6.666 -33.807 30.723 97 95 80
-5.813 -34.391 28.748 73 81 69
-5.031 -35.722 24.250 43 54 53
-4.261 -37.816 17.170 22 25 24
-3.337 -39.490 11.512 12 13 8
-2.242 -39.800 10.466 12 12 12
-1.109 -39.362 11.944 10 10 10
0.000 -38.851 13.672 33 34 40
1.086 -38.555 14.673 48 51 57
2.173 -38.570 14.621 56 61 73
3.282 -38.836 13.722 67 70 83
4.414 -39.178 12.568 83 89 105
5.555 -39.440 11.681 92 99 99
6.689 -39.579 11.211 118 115 103
7.815 -39.631 11.035 126 129 81
8.935 -39.648 10.980 145 144 80
10.054 -39.656 10.953 139 138 77
11.173 -39.663 10.929 153 151 81
12.291 -39.667 10.914 151 150 71
13.409 -39.668 10.912 166 157 87
14.526 -39.667 10.913 153 146 76
15.644 -39.668 10.912 146 149 91
16.759 -39.664 10.925 133 138 91
17.871 -39.651 10.969 149 145 83
18.977 -39.628 11.047 151 148 83
20.081 -39.604 11.127 159 153 78
21.189 -39.589 11.176 135 144 84
22.303 -39.587 11.183 133 131 86
23.423 -39.597 11.152 132 136 84
24.547 -39.610 11.107 139 129 89
25.669 -39.620 11.074 131 127 79
26.788 -39.625 11.058 125 133 94
27.911 -39.634 11.027 133 149 105
29.037 -39.647 10.981 155 188 182
30.163 -39.659 10.943 186 212 224
31.285 -39.665 10.920 193 219 242
32.403 -39.666 10.918 216 253 255
33.491 -39.632 11.034 235 255 255
34.527 -39.539 11.347 224 255 255
35.533 -39.419 11.751 230 255 255
36.574 -39.345 12.003 238 255 255
37.709 -39.372 11.911 239 255 255
38.951 -39.508 11.453 238 255 255
40.260 -39.701 10.800 232 255 255
41.556 -39.872 10.222 229 255 255
42.781 -39.966 9.903 216 255 255
43.908 -39.967 9.900 205 243 250
44.938 -39.882 10.187 191 219 216
45.900 -39.742 10.659 179 199 176
46.839 -39.590 11.175 161 162 98
47.784 -39.449 11.650 162 158 82
48.741 -39.325 12.070 147 140 83
49.711 -39.217 12.437 132 134 81
50.704 -39.130 12.730 131 135 83
51.725 -39.069 12.937 132 128 82
52.767 -39.026 13.082 126 127 95
53.819 -38.991 13.198 127 129 99
54.870 -38.958 13.313 122 127 114
55.907 -38.916 13.453 123 124 119
56.918 -38.857 13.651 137 142 101
57.906 -38.786 13.892 139 140 105
58.898 -38.720 14.115 138 138 99
59.917 -38.673 14.273 149 146 95
60.963 -38.646 14.365 139 143 91
62.039 -38.638 14.392 124 128 91
63.148 -38.651 14.349 133 140 99
64.289 -38.682 14.243 129 133 95
65.430 -38.713 14.139 149 144 89
66.533 -38.720 14.116 139 147 101
67.583 -38.697 14.194 127 132 126
68.605 -38.658 14.323 108 111 112
69.619 -38.617 14.464 108 118 115
70.598 -38.558 14.665 99 108 109
71.460 -38.437 15.072 90 99 117
72.125 -38.215 15.822 78 93 110
72.603 -37.903 16.877 71 82 110
73.032 -37.575 17.987 59 71 80
73.595 -37.323 18.836 52 60 69
74.472 -37.236 19.132 42 50 58
75.725 -37.337 18.792 30 31 42
77.453 -37.666 17.680 29 27 35
79.806 -38.285 15.585 20 24 25
83.053 -39.312 12.115 14 19 15
86.878 -40.581 7.824 15 11 8
89.708 -41.359 5.196 13 14 11
89.834 -40.886 6.794 15 14 7
87.344 -39.249 12.326 19 22 18
83.891 -37.227 19.164 50 51 44
81.085 -35.537 24.874 66 72 65
79.598 -34.460 28.515 90 91 84
79.311 -33.922 30.333 107 106 99
79.830 -33.738 30.957 116 116 118
80.757 -33.728 30.990 115 118 117
81.825 -33.777 30.825 124 130 135
82.867 -33.814 30.701 123 129 134
83.841 -33.822 30.671 129 135 139
84.765 -33.811 30.710 123 136 159
85.697 -33.803 30.738 134 134 148
86.675 -33.813 30.703 147 148 157
87.697 -33.840 30.613 148 155 178
88.729 -33.870 30.510 132 146 146
89.773 -33.904 30.396 122 133 123
90.858 -33.952 30.232 118 119 116
91.967 -34.009 30.041 114 115 108
93.007 -34.039 29.939 90 98 121
93.923 -34.023 29.993 97 104 72
94.777 -33.986 30.118 87 86 41
95.663 -33.960 30.204 96 89 32
96.608 -33.956 30.218 89 84 31
97.580 -33.962 30.200 89 83 37
98.542 -33.964 30.194 94 87 33
99.501 -33.964 30.191 97 89 41
100.501 -33.979 30.142 99 96 29
101.567 -34.015 30.019 98 93 24
102.675 -34.065 29.850 98 94 31
103.765 -34.108 29.705 98 94 31
104.783 -34.127 29.642 87 84 30
105.722 -34.119 29.667 79 78 28
106.621 -34.099 29.734 87 79 34
107.515 -34.078 29.805 94 86 39
108.393 -34.053 29.893 85 84 21
109.228 -34.014 30.023 86 80 23
110.033 -33.967 30.183 86 87 27
110.845 -33.922 30.333 87 81 35
111.684 -33.887 30.452 82 77 28
112.557 -33.862 30.536 91 83 35
113.455 -33.846 30.591 95 90 39
-132.492 -40.300 12.508 91 95 57
-131.019 -40.187 12.880 112 113 79
-129.554 -40.074 13.250 122 122 77
-128.154 -39.980 13.560 114 113 77
-126.867 -39.919 13.759 129 127 85
-125.680 -39.890 13.856 130 135 106
-124.539 -39.874 13.906 121 122 99
-123.400 -39.859 13.956 124 127 108
-122.248 -39.840 14.020 126 128 100
-121.095 -39.819 14.087 124 124 94
-119.963 -39.806 14.132 121 121 96
-118.871 -39.806 14.133 114 115 85
-117.789 -39.808 14.124 111 114 81
-116.652 -39.793 14.175 126 120 90
-115.445 -39.752 14.308 116 113 102
-114.211 -39.702 14.473 124 129 100
-113.014 -39.663 14.600 122 121 124
-111.875 -39.645 14.660 130 127 112
-110.777 -39.641 14.674 127 131 89
-109.673 -39.634 14.695 130 128 88
-108.534 -39.615 14.760 115 119 95
-107.365 -39.584 14.861 121 122 101
-106.210 -39.558 14.946 119 123 101
-105.135 -39.561 14.936 119 126 96
-104.195 -39.616 14.756 123 124 104
-103.399 -39.727 14.391 127 129 101
-102.699 -39.878 13.895 111 114 97
-102.027 -40.043 13.353 124 124 122
-101.296 -40.188 12.875 106 113 113
-100.398 -40.270 12.607 123 116 107
-99.264 -40.257 12.647 108 116 84
-97.913 -40.155 12.983 115 116 97
-96.427 -39.995 13.509 116 165 117
-94.918 -39.822 14.078 89 201 147
-93.506 -39.686 14.526 71 221 152
-92.297 -39.634 14.698 73 244 159
-91.307 -39.675 14.562 95 247 167
-90.416 -39.761 14.278 75 207 162
-89.447 -39.815 14.102 101 177 158
-88.361 -39.817 14.095 103 139 115
-87.290 -39.826 14.064 105 116 133
-86.341 -39.892 13.848 116 111 112
-85.443 -39.983 13.550 105 114 113
-84.460 -40.036 13.374 93 110 106
-83.354 -40.032 13.389 90 90 90
-82.168 -39.989 13.530 86 95 97
-80.959 -39.932 13.715 117 121 136
-79.865 -39.933 13.715 104 103 122
-78.969 -40.033 13.385 102 103 98
-78.173 -40.188 12.876 87 97 94
-77.285 -40.299 12.511 126 126 126
-76.209 -40.314 12.462 130 130 98
-75.106 -40.314 12.461 143 152 126
-74.174 -40.408 12.151 135 140 134
-73.413 -40.599 11.523 90 99 96
-72.578 -40.755 11.010 98 117 117
-71.431 -40.738 11.068 91 105 116
-70.013 -40.563 11.642 64 139 125
-68.566 -40.366 12.291 47 189 142
-67.254 -40.242 12.697 26 216 152
-66.067 -40.191 12.866 35 244 178
-64.933 -40.171 12.932 25 240 174
-63.852 -40.183 12.892 33 240 171
-62.868 -40.258 12.646 34 239 167
-61.982 -40.399 12.182 42 199 148
-61.080 -40.535 11.734 55 153 125
-59.993 -40.551 11.682 68 121 101
-58.672 -40.406 12.157 142 170 195
-57.276 -40.203 12.826 90 99 100
-55.975 -40.060 13.295 88 95 91
-54.812 -40.013 13.450 98 99 96
-53.748 -40.037 13.372 99 102 101
-52.735 -40.101 13.162 103 105 102
-51.740 -40.181 12.898 95 100 98
-50.732 -40.255 12.655 108 111 110
-49.687 -40.302 12.502 102 107 107
-48.596 -40.313 12.465 105 113 106
-47.481 -40.304 12.494 102 106 109
-46.376 -40.303 12.498 99 106 106
-45.299 -40.327 12.418 94 98 101
-44.245 -40.374 12.265 98 103 97
-43.190 -40.421 12.109 99 106 106
-42.107 -40.445 12.031 107 117 112
-40.975 -40.421 12.109 106 110 113
-39.775 -40.327 12.417 104 108 95
-38.494 -40.144 13.019 110 108 88
-37.125 -39.855 13.969 114 113 77
-35.682 -39.466 15.248 109 104 64
-34.204 -39.014 16.735 76 79 62
-32.772 -38.586 18.142 52 53 48
-31.462 -38.279 19.150 28 33 27
-30.203 -38.014 20.022 19 20 17
-28.709 -37.424 21.962 17 15 16
-26.876 -36.332 25.553 10 10 10
-25.120 -35.264 29.063 10 10 12
-23.730 -34.645 31.097 16 15 9
-22.612 -34.390 31.938 40 36 21
-21.615 -34.303 32.224 58 56 23
-20.661 -34.279 32.301 69 70 26
-19.727 -34.288 32.273 84 81 32
-18.809 -34.326 32.148 98 93 38
-17.900 -34.388 31.945 95 90 48
-16.991 -34.454 31.725 103 103 71
-16.069 -34.500 31.575 105 109 87
-15.128 -34.510 31.542 110 112 100
-14.175 -34.492 31.602 114 119 113
-13.219 -34.463 31.696 121 125 117
-12.269 -34.447 31.749 125 125 127
-11.328 -34.457 31.717 132 141 129
-10.391 -34.479 31.643 140 137 138
-9.451 -34.497 31.585 134 134 109
-8.514 -34.530 31.477 123 122 118
-7.603 -34.690 30.951 102 105 95
-6.757 -35.232 29.167 79 87 77
-6.011 -36.567 24.781 47 56 55
-5.318 -38.818 17.378 25 32 32
-4.475 -40.836 10.743 17 19 18
-3.396 -41.313 9.176 12 12 14
-2.233 -40.746 11.040 12 18 23
-1.098 -40.082 13.224 31 35 40
0.000 -39.710 14.448 37 38 51
1.087 -39.681 14.541 50 50 64
2.187 -39.912 13.782 62 69 82
3.308 -40.244 12.690 77 85 93
4.441 -40.520 11.784 106 109 108
5.571 -40.668 11.298 109 108 102
6.693 -40.715 11.143 137 136 102
7.810 -40.721 11.121 144 139 88
8.926 -40.726 11.106 155 148 80
10.044 -40.736 11.074 157 150 77
11.163 -40.745 11.044 160 156 78
12.280 -40.748 11.034 154 148 86
13.396 -40.745 11.043 146 143 82
14.511 -40.741 11.055 151 154 80
15.626 -40.740 11.061 141 141 86
16.741 -40.737 11.069 143 144 84
17.854 -40.730 11.092 155 152 84
18.964 -40.716 11.140 158 155 88
20.072 -40.701 11.189 150 144 87
21.186 -40.699 11.194 139 140 74
22.314 -40.724 11.114 132 135 90
23.460 -40.776 10.942 120 124 82
24.611 -40.833 10.756 119 121 82
25.745 -40.856 10.679 122 131 94
26.843 -40.824 10.785 147 170 153
27.912 -40.751 11.024 175 208 213
28.959 -40.654 11.343 205 237 247
29.990 -40.542 11.710 221 255 255
31.019 -40.435 12.063 234 255 255
32.067 -40.361 12.307 234 255 255
33.129 -40.307 12.484 236 255 255
34.171 -40.234 12.725 242 255 255
35.186 -40.134 13.052 229 255 255
36.208 -40.049 13.333 233 255 255
37.281 -40.023 13.419 236 255 255
38.448 -40.096 13.177 244 255 255
39.742 -40.294 12.527 245 255 255
41.129 -40.574 11.607 244 255 255
42.517 -40.839 10.735 234 255 255
43.819 -41.010 10.173 234 255 255
44.989 -41.053 10.032 226 255 255
46.030 -40.978 10.278 185 238 245
46.982 -40.829 10.767 174 205 210
47.892 -40.653 11.347 146 161 142
48.794 -40.477 11.924 136 145 85
49.709 -40.319 12.444 145 140 87
50.658 -40.196 12.850 142 137 82
51.652 -40.113 13.122 134 141 82
52.681 -40.060 13.297 125 126 80
53.726 -40.021 13.426 122 128 89
54.773 -39.984 13.545 131 134 104
55.812 -39.944 13.677 133 136 103
56.831 -39.891 13.852 131 137 103
57.829 -39.826 14.067 132 138 100
58.827 -39.762 14.274 138 139 91
59.846 -39.716 14.426 140 138 91
60.893 -39.689 14.515 135 138 92
61.968 -39.681 14.540 140 139 85
63.074 -39.693 14.503 130 131 96
64.206 -39.721 14.411 134 136 95
65.343 -39.750 14.315 143 148 103
66.449 -39.761 14.280 135 131 98
67.512 -39.745 14.333 133 136 117
68.549 -39.715 14.430 127 124 118
69.596 -39.691 14.508 116 121 92
70.652 -39.674 14.565 121 121 105
71.659 -39.630 14.711 99 108 111
72.527 -39.511 15.101 93 107 118
73.207 -39.295 15.811 73 93 113
73.721 -38.997 16.790 70 83 101
74.139 -38.658 17.904 54 65 82
74.618 -38.360 18.885 54 64 76
75.325 -38.186 19.458 46 50 67
76.494 -38.247 19.257 32 43 48
78.360 -38.650 17.930 20 24 27
81.259 -39.546 14.985 17 15 25
85.208 -40.922 10.461 19 20 29
89.283 -42.322 5.858 6 6 9
91.578 -42.854 4.111 12 12 14
90.515 -41.820 7.509 12 7 9
86.768 -39.588 14.848 16 16 16
82.859 -37.338 22.246 44 45 26
80.516 -35.840 27.171 66 67 60
79.847 -35.113 29.559 85 81 78
80.281 -34.884 30.313 101 101 99
81.211 -34.873 30.350 112 110 106
82.254 -34.910 30.227 124 124 122
83.218 -34.913 30.216 125 133 137
84.079 -34.874 30.346 133 135 137
84.891 -34.815 30.541 136 138 167
85.749 -34.776 30.668 138 150 157
86.715 -34.781 30.650 137 146 170
87.771 -34.822 30.516 143 147 159
88.858 -34.875 30.344 141 147 154
89.964 -34.933 30.153 131 136 135
91.100 -35.002 29.926 131 129 139
92.230 -35.067 29.712 133 138 152
93.246 -35.087 29.644 121 117 129
94.104 -35.049 29.771 98 116 133
94.895 -34.987 29.976 98 102 78
95.729 -34.941 30.126 93 97 46
96.630 -34.921 30.192 94 94 42
97.564 -34.912 30.219 90 92 21
98.491 -34.902 30.253 94 94 40
99.420 -34.893 30.285 103 97 31
100.396 -34.900 30.262 103 99 41
101.443 -34.931 30.159 94 88 31
102.540 -34.979 30.002 101 98 33
103.631 -35.023 29.855 99 93 31
104.668 -35.049 29.769 101 100 36
105.643 -35.054 29.753 96 94 33
106.584 -35.048 29.775 92 86 36
107.504 -35.035 29.818 89 89 30
108.379 -35.007 29.907 88 87 23
109.191 -34.960 30.062 88 84 26
109.972 -34.904 30.247 93 88 35
110.770 -34.854 30.411 83 80 27
111.606 -34.817 30.532 89 84 31
112.475 -34.791 30.618 92 92 26
113.369 -34.773 30.679 94 89 27
-132.818 -41.506 12.182 64 72 40
-131.205 -41.346 12.692 91 99 53
-129.650 -41.202 13.153 108 112 84
-128.225 -41.098 13.487 114 115 81
-126.966 -41.045 13.656 118 123 78
-125.824 -41.030 13.706 121 120 102
-124.697 -41.019 13.740 114 121 105
-123.512 -40.989 13.837 124 126 101
-122.268 -40.938 13.998 126 128 100
-121.019 -40.885 14.169 123 124 87
-119.818 -40.847 14.289 127 121 100
-118.699 -40.837 14.322 116 117 97
-117.633 -40.845 14.297 111 114 81
-116.550 -40.847 14.289 116 120 82
-115.405 -40.827 14.353 124 125 90
-114.209 -40.789 14.476 127 124 86
-113.017 -40.751 14.596 123 121 81
-111.868 -40.729 14.668 136 143 127
-110.755 -40.719 14.700 119 119 94
-109.636 -40.706 14.740 109 113 75
-108.476 -40.678 14.829 124 126 101
-107.282 -40.637 14.962 128 130 93
-106.098 -40.599 15.084 117 112 100
-104.993 -40.590 15.112 126 128 100
-104.020 -40.633 14.975 127 126 106
-103.185 -40.731 14.661 129 133 97
-102.433 -40.864 14.234 132 136 114
-101.692 -41.005 13.785 128 128 126
-100.897 -41.127 13.395 140 139 105
-99.990 -41.205 13.146 112 110 106
-98.934 -41.222 13.088 122 127 84
-97.731 -41.179 13.227 137 132 92
-96.396 -41.078 13.551 110 125 106
-94.963 -40.932 14.017 86 181 117
-93.517 -40.778 14.511 67 211 153
-92.206 -40.679 14.827 60 233 148
-91.141 -40.688 14.799 64 248 165
-90.267 -40.783 14.493 70 233 183
-89.389 -40.879 14.187 72 192 154
-88.382 -40.918 14.064 86 149 128
-87.330 -40.936 14.005 89 118 104
-86.366 -40.997 13.811 106 117 116
-85.485 -41.099 13.484 104 110 115
-84.578 -41.191 13.190 91 100 99
-83.571 -41.235 13.047 84 94 90
-82.469 -41.234 13.050 87 92 90
-81.323 -41.211 13.125 86 90 93
-80.286 -41.243 13.022 86 96 91
-79.426 -41.368 12.623 96 97 90
-78.645 -41.538 12.079 95 103 96
-77.765 -41.660 11.688 125 143 146
-76.678 -41.673 11.647 147 157 179
-75.479 -41.624 11.802 122 135 154
-74.318 -41.596 11.893 121 136 129
-73.249 -41.619 11.820 85 101 91
-72.164 -41.633 11.774 98 102 123
-70.918 -41.554 12.028 88 138 126
-69.532 -41.388 12.557 67 200 150
-68.175 -41.235 13.049 40 223 173
-66.960 -41.164 13.275 31 235 171
-65.876 -41.172 13.248 31 242 178
-64.839 -41.211 13.125 31 237 172
-63.799 -41.249 13.002 31 233 167
-62.764 -41.292 12.864 46 209 158
-61.762 -41.358 12.654 63 176 140
-60.767 -41.432 12.418 68 120 109
-59.698 -41.457 12.338 77 91 91
-58.500 -41.392 12.547 84 88 91
-57.228 -41.270 12.935 86 90 91
-55.978 -41.160 13.287 95 101 94
-54.806 -41.104 13.466 104 106 94
-53.717 -41.110 13.448 105 105 105
-52.691 -41.165 13.273 101 107 98
-51.690 -41.242 13.025 96 103 101
-50.677 -41.313 12.800 96 101 102
-49.630 -41.359 12.652 95 101 104
-48.551 -41.379 12.588 99 105 112
-47.455 -41.385 12.567 101 110 114
-46.361 -41.394 12.539 102 108 111
-45.277 -41.412 12.482 101 110 114
-44.198 -41.436 12.405 98 99 108
-43.115 -41.456 12.339 99 104 102
-42.011 -41.458 12.335 107 107 107
-40.859 -41.411 12.484 102 105 95
-39.624 -41.275 12.920 107 113 104
-38.290 -41.025 13.720 104 107 92
-36.868 -40.663 14.878 90 96 73
-35.396 -40.223 16.287 69 71 61
-33.919 -39.749 17.803 55 55 55
-32.513 -39.330 19.144 37 37 35
-31.257 -39.071 19.972 24 24 22
-30.050 -38.858 20.655 16 14 15
-28.542 -38.225 22.679 11 12 5
-26.719 -37.109 26.250 10 11 6
-25.047 -36.125 29.399 17 18 11
-23.714 -35.571 31.172 40 39 19
-22.611 -35.330 31.943 47 46 22
-21.613 -35.238 32.237 66 69 20
-20.658 -35.212 32.322 81 71 33
-19.726 -35.225 32.281 92 93 33
-18.812 -35.273 32.126 97 92 55
-17.908 -35.344 31.898 104 95 80
-16.999 -35.414 31.674 114 115 94
-16.073 -35.456 31.542 119 117 115
-15.127 -35.455 31.544 108 124 123
-14.169 -35.423 31.648 111 118 118
-13.208 -35.378 31.790 122 128 130
-12.253 -35.346 31.893 126 129 124
-11.310 -35.344 31.899 129 128 121
-10.374 -35.366 31.829 132 130 113
-9.443 -35.412 31.681 129 130 111
-8.530 -35.542 31.267 101 109 99
-7.674 -35.970 29.896 84 88 80
-6.936 -37.155 26.106 54 62 55
-6.313 -39.457 18.736 29 32 31
-5.594 -41.956 10.740 15 18 15
-4.581 -42.951 7.558 16 15 18
-3.397 -42.458 9.136 19 16 17
-2.216 -41.550 12.040 25 30 31
-1.091 -40.917 14.065 42 50 56
0.000 -40.734 14.652 48 56 62
1.091 -40.906 14.101 61 66 80
2.200 -41.243 13.024 67 78 94
3.325 -41.558 12.014 89 97 99
4.453 -41.745 11.417 103 106 98
5.573 -41.800 11.241 139 134 108
6.686 -41.788 11.277 142 136 88
7.798 -41.775 11.321 159 151 78
8.914 -41.783 11.296 164 156 79
10.033 -41.802 11.232 159 151 74
11.151 -41.816 11.189 156 146 79
12.266 -41.815 11.193 163 160 79
13.377 -41.804 11.226 164 163 86
14.490 -41.797 11.250 150 142 76
15.605 -41.799 11.244 150 149 72
16.723 -41.807 11.218 163 154 80
17.841 -41.816 11.190 157 156 79
18.959 -41.820 11.175 153 152 86
20.076 -41.825 11.159 155 157 79
21.203 -41.849 11.084 143 130 86
22.354 -41.914 10.875 138 146 86
23.532 -42.022 10.530 134 138 85
24.710 -42.119 10.219 121 140 111
25.833 -42.119 10.221 165 190 188
26.871 -41.986 10.644 196 233 243
27.847 -41.770 11.335 218 252 255
28.791 -41.526 12.116 229 255 255
29.727 -41.288 12.879 229 255 255
30.685 -41.095 13.495 231 255 255
31.702 -40.993 13.821 245 255 255
32.776 -40.969 13.898 247 255 255
33.862 -40.962 13.923 247 255 255
34.925 -40.928 14.032 243 255 255
35.968 -40.873 14.206 232 255 255
37.013 -40.823 14.367 241 255 255
38.097 -40.819 14.380 250 255 255
39.293 -40.930 14.023 251 255 255
40.639 -41.188 13.198 251 255 255
42.078 -41.525 12.121 244 255 255
43.508 -41.835 11.129 250 255 255
44.844 -42.041 10.469 239 255 255
46.037 -42.107 10.258 227 255 255
47.084 -42.039 10.475 206 255 255
48.018 -41.876 10.995 183 227 235
48.894 -41.671 11.654 151 182 172
49.760 -41.467 12.307 149 148 100
50.661 -41.300 12.840 169 157 91
51.619 -41.185 13.208 162 149 90
52.622 -41.111 13.445 156 153 86
53.646 -41.056 13.621 144 147 85
54.677 -41.007 13.776 127 129 88
55.708 -40.962 13.923 136 136 93
56.734 -40.914 14.075 131 135 100
57.754 -40.864 14.235 132 131 95
58.776 -40.817 14.386 130 135 102
59.811 -40.780 14.504 135 134 94
60.859 -40.754 14.588 146 142 84
61.923 -40.739 14.635 140 136 90
63.009 -40.738 14.638 149 148 87
64.118 -40.753 14.590 151 154 94
65.238 -40.774 14.524 131 131 88
66.343 -40.784 14.490 139 138 88
67.415 -40.775 14.520 135 138 96
68.464 -40.752 14.593 131 129 98
69.522 -40.735 14.647 135 134 96
70.602 -40.732 14.659 127 128 98
71.668 -40.720 14.695 121 123 110
72.654 -40.664 14.874 99 102 99
73.503 -40.535 15.289 95 106 111
74.185 -40.318 15.982 79 87 107
74.700 -40.018 16.943 78 90 115
75.125 -39.679 18.028 54 70 85
75.597 -39.373 19.006 43 55 67
76.355 -39.223 19.486 42 52 60
77.672 -39.361 19.045 25 31 38
79.900 -39.950 17.160 31 26 27
83.158 -41.032 13.697 24 23 28
86.982 -42.361 9.444 16 27 28
90.217 -43.373 6.205 10 9 14
91.295 -43.336 6.324 9 9 7
89.272 -41.846 11.092 12 8 5
85.395 -39.535 18.490 15 15 11
82.283 -37.630 24.585 41 46 40
81.159 -36.668 27.661 60 61 56
81.518 -36.392 28.545 76 79 64
82.419 -36.361 28.644 100 97 89
83.304 -36.324 28.762 113 118 114
83.997 -36.205 29.142 127 136 137
84.563 -36.035 29.687 133 144 159
85.150 -35.878 30.191 132 134 163
85.903 -35.793 30.463 137 148 153
86.868 -35.797 30.449 129 162 171
87.970 -35.857 30.257 126 133 144
89.094 -35.925 30.040 128 147 140
90.203 -35.985 29.848 128 143 138
91.307 -36.042 29.665 136 142 163
92.385 -36.088 29.518 129 143 170
93.360 -36.093 29.503 133 128 160
94.203 -36.047 29.649 124 144 146
94.988 -35.980 29.863 116 124 103
95.804 -35.926 30.036 108 110 84
96.673 -35.893 30.141 104 107 74
97.570 -35.871 30.212 94 100 52
98.461 -35.848 30.288 101 94 44
99.355 -35.825 30.360 102 100 39
100.298 -35.821 30.374 94 94 38
101.320 -35.844 30.298 99 93 31
102.403 -35.889 30.156 102 101 33
103.492 -35.935 30.009 98 98 32
104.542 -35.966 29.907 87 89 36
105.544 -35.981 29.861 93 89 31
106.508 -35.982 29.856 91 89 31
107.431 -35.970 29.895 96 89 34
108.290 -35.937 30.002 93 87 26
109.085 -35.883 30.173 90 89 26
109.870 -35.827 30.353 87 84 30
110.693 -35.784 30.490 89 85 27
111.559 -35.756 30.580 90 88 32
112.452 -35.737 30.643 91 89 33
113.357 -35.722 30.690 88 84 28
-133.637 -42.875 11.363 55 61 25
-131.764 -42.629 12.129 75 82 41
-130.020 -42.422 12.777 105 109 58
-128.517 -42.290 13.188 104 110 76
-127.267 -42.239 13.344 112 118 82
-126.143 -42.231 13.372 106 103 95
-124.981 -42.208 13.442 127 124 95
-123.697 -42.145 13.640 135 140 97
-122.325 -42.049 13.938 133 129 124
-120.956 -41.953 14.237 118 121 88
-119.668 -41.884 14.453 124 124 83
-118.496 -41.854 14.546 121 118 92
-117.417 -41.857 14.536 117 117 89
-116.363 -41.869 14.500 132 134 83
-115.264 -41.865 14.513 125 124 88
-114.100 -41.837 14.600 126 122 89
-112.923 -41.803 14.704 121 117 86
-111.788 -41.785 14.762 118 120 92
-110.693 -41.781 14.773 120 119 97
-109.586 -41.773 14.799 125 126 93
-108.424 -41.743 14.892 120 122 94
-107.218 -41.696 15.039 122 120 91
-106.025 -41.653 15.174 133 131 105
-104.911 -41.640 15.213 120 116 97
-103.917 -41.675 15.104 121 121 117
-103.032 -41.755 14.854 128 135 108
-102.204 -41.860 14.527 137 140 123
-101.380 -41.969 14.187 132 134 133
-100.530 -42.070 13.874 128 127 107
-99.624 -42.149 13.627 117 119 79
-98.642 -42.197 13.478 118 117 85
-97.573 -42.209 13.440 112 114 86
-96.397 -42.174 13.549 106 110 100
-95.087 -42.079 13.845 91 151 101
-93.666 -41.932 14.303 68 201 140
-92.273 -41.794 14.733 68 234 162
-91.098 -41.753 14.860 79 252 185
-90.189 -41.835 14.606 70 253 207
-89.394 -41.972 14.179 79 229 201
-88.520 -42.075 13.859 87 186 148
-87.554 -42.135 13.669 91 147 124
-86.596 -42.202 13.462 116 129 122
-85.682 -42.292 13.181 130 130 162
-84.745 -42.372 12.930 115 116 109
-83.723 -42.412 12.806 87 97 96
-82.648 -42.426 12.763 96 95 102
-81.599 -42.453 12.678 98 101 107
-80.691 -42.556 12.358 94 102 109
-79.887 -42.717 11.856 104 118 147
-79.050 -42.865 11.394 117 136 134
-78.082 -42.945 11.145 155 169 169
-76.971 -42.947 11.138 129 155 176
-75.760 -42.893 11.306 154 153 233
-74.483 -42.800 11.597 136 139 177
-73.186 -42.692 11.934 139 138 147
-71.881 -42.576 12.297 76 163 129
-70.535 -42.431 12.747 50 197 161
-69.182 -42.278 13.224 35 214 160
-67.928 -42.181 13.526 36 241 172
-66.828 -42.178 13.536 38 244 183
-65.837 -42.246 13.325 34 245 176
-64.857 -42.322 13.087 29 235 168
-63.809 -42.356 12.982 47 224 171
-62.682 -42.338 13.038 57 189 149
-61.532 -42.303 13.145 79 137 117
-60.414 -42.290 13.187 85 107 100
-59.331 -42.301 13.154 82 86 92
-58.238 -42.305 13.140 83 92 93
-57.104 -42.279 13.221 89 101 97
-55.940 -42.229 13.377 107 108 99
-54.789 -42.187 13.507 100 105 103
-53.696 -42.189 13.501 108 113 109
-52.666 -42.243 13.334 103 105 104
-51.663 -42.320 13.093 105 107 109
-50.642 -42.386 12.889 95 102 102
-49.589 -42.426 12.763 97 104 102
-48.513 -42.449 12.691 94 113 109
-47.433 -42.469 12.630 93 104 105
-46.352 -42.490 12.565 105 107 111
-45.266 -42.506 12.514 104 106 107
-44.167 -42.511 12.499 110 116 110
-43.053 -42.501 12.528 98 102 101
-41.917 -42.468 12.631 93 98 96
-40.732 -42.383 12.896 122 109 91
-39.459 -42.199 13.470 130 122 90
-38.098 -41.907 14.379 115 102 86
-36.685 -41.541 15.522 86 89 56
-35.269 -41.147 16.750 60 61 56
-33.846 -40.722 18.076 44 49 45
-32.420 -40.263 19.504 30 32 20
-31.023 -39.813 20.909 17 17 15
-29.604 -39.302 22.501 11 11 11
-28.020 -38.527 24.916 10 8 9
-26.374 -37.607 27.782 15 15 13
-24.911 -36.888 30.026 28 28 12
-23.686 -36.476 31.309 54 56 14
-22.617 -36.282 31.914 74 69 30
-21.625 -36.199 32.171 83 76 19
-20.671 -36.174 32.249 91 85 35
-19.740 -36.190 32.201 104 95 52
-18.825 -36.239 32.049 96 101 72
-17.915 -36.302 31.852 114 117 93
-16.996 -36.353 31.691 113 124 100
-16.060 -36.372 31.634 127 122 124
-15.108 -36.354 31.690 120 122 124
-14.148 -36.314 31.814 116 121 129
-13.189 -36.270 31.950 113 118 114
-12.237 -36.240 32.045 124 121 112
-11.296 -36.241 32.041 125 128 111
-10.365 -36.279 31.922 124 128 113
-9.455 -36.401 31.542 102 103 98
-8.590 -36.748 30.460 89 93 80
-7.830 -37.682 27.551 59 64 62
-7.220 -39.712 21.222 36 38 40
-6.618 -42.464 12.645 24 24 22
-5.733 -44.142 7.415 15 15 15
-4.581 -44.097 7.556 10 16 9
-3.367 -43.210 10.321 21 30 29
-2.200 -42.344 13.019 42 48 55
-1.089 -41.912 14.364 50 53 63
0.000 -41.938 14.284 64 72 79
1.097 -42.228 13.380 65 80 88
2.211 -42.558 12.350 79 85 89
3.334 -42.788 11.636 103 106 100
4.455 -42.877 11.356 111 111 93
5.567 -42.866 11.392 138 133 82
6.674 -42.823 11.524 158 151 78
7.783 -42.804 11.585 153 149 75
8.898 -42.821 11.532 155 153 76
10.018 -42.853 11.432 149 150 75
11.135 -42.871 11.378 150 145 79
12.246 -42.861 11.406 167 156 84
13.352 -42.839 11.476 170 156 85
14.461 -42.826 11.515 156 162 80
15.577 -42.836 11.486 165 165 79
16.700 -42.863 11.401 168 154 98
17.828 -42.899 11.288 161 155 82
18.960 -42.939 11.165 141 146 88
20.096 -42.983 11.028 138 145 88
21.245 -43.049 10.822 149 146 77
22.421 -43.160 10.474 148 147 86
23.620 -43.304 10.027 147 160 137
24.790 -43.383 9.781 185 207 200
25.850 -43.270 10.131 205 249 250
26.793 -42.980 11.036 234 255 255
27.684 -42.633 12.118 235 255 255
28.572 -42.308 13.131 232 255 255
29.480 -42.037 13.977 230 255 255
30.444 -41.860 14.526 229 255 255
31.497 -41.815 14.667 238 255 255
32.627 -41.871 14.492 228 255 255
33.777 -41.948 14.252 229 255 255
34.899 -41.988 14.130 221 255 255
35.981 -41.977 14.161 222 255 255
37.027 -41.928 14.317 214 255 255
38.059 -41.865 14.513 222 255 255
39.140 -41.858 14.533 226 255 255
40.350 -41.986 14.135 232 255 255
41.700 -42.249 13.316 236 255 255
43.127 -42.574 12.301 250 255 255
44.547 -42.876 11.359 242 255 255
45.885 -43.087 10.704 245 255 255
47.077 -43.154 10.494 228 255 255
48.102 -43.068 10.763 220 255 255
49.002 -42.876 11.360 189 233 243
49.849 -42.649 12.069 161 202 186
50.712 -42.444 12.708 137 146 90
51.627 -42.290 13.186 166 160 85
52.595 -42.185 13.513 162 153 83
53.590 -42.106 13.760 163 158 91
54.595 -42.038 13.972 147 141 79
55.610 -41.980 14.152 133 136 90
56.641 -41.936 14.289 121 130 93
57.690 -41.907 14.382 131 133 108
58.749 -41.886 14.446 130 132 107
59.809 -41.867 14.507 144 138 101
60.860 -41.841 14.585 153 145 95
61.907 -41.814 14.670 153 149 73
62.965 -41.796 14.728 152 154 99
64.047 -41.793 14.736 146 138 88
65.146 -41.802 14.707 147 153 87
66.243 -41.809 14.685 134 146 85
67.320 -41.804 14.703 133 134 86
68.379 -41.787 14.754 139 134 95
69.441 -41.773 14.799 135 134 94
70.516 -41.767 14.816 140 136 94
71.586 -41.759 14.843 122 127 93
72.613 -41.725 14.947 115 117 103
73.561 -41.648 15.187 107 111 105
74.405 -41.516 15.599 106 111 125
75.125 -41.319 16.214 106 105 124
75.728 -41.064 17.009 95 103 139
76.247 -40.771 17.921 57 75 92
76.819 -40.514 18.722 53 57 76
77.676 -40.412 19.039 49 56 72
79.162 -40.637 18.341 33 42 58
81.470 -41.271 16.363 33 33 49
84.381 -42.190 13.498 27 29 33
87.251 -43.066 10.768 17 21 24
89.190 -43.466 9.522 15 14 17
89.344 -42.997 10.984 15 11 10
87.503 -41.591 15.366 10 8 7
84.984 -39.901 20.633 13 13 13
83.805 -38.873 23.837 22 28 21
84.154 -38.571 24.780 55 59 48
84.911 -38.460 25.125 73 74 69
85.409 -38.235 25.825 89 92 88
85.554 -37.860 26.995 112 111 120
85.554 -37.430 28.336 129 137 159
85.706 -37.075 29.441 134 139 163
86.223 -36.884 30.036 122 128 130
87.112 -36.855 30.127 129 133 134
88.203 -36.911 29.953 123 132 134
89.312 -36.973 29.759 124 137 130
90.372 -37.014 29.631 123 139 141
91.398 -37.040 29.551 132 159 157
92.400 -37.056 29.500 124 154 155
93.350 -37.051 29.515 135 163 162
94.234 -37.021 29.611 125 150 149
95.073 -36.973 29.760 118 134 133
95.909 -36.925 29.909 115 126 116
96.762 -36.885 30.035 108 108 97
97.625 -36.849 30.147 109 114 83
98.475 -36.809 30.272 100 104 66
99.321 -36.768 30.398 100 99 49
100.216 -36.746 30.467 96 94 36
101.200 -36.757 30.434 94 91 28
102.258 -36.794 30.319 100 96 34
103.334 -36.837 30.184 95 90 39
104.391 -36.872 30.075 86 87 25
105.411 -36.894 30.006 94 98 31
106.390 -36.901 29.984 95 92 40
107.311 -36.888 30.024 96 89 30
108.161 -36.851 30.139 94 91 28
108.962 -36.798 30.304 94 97 35
109.778 -36.752 30.449 88 85 31
110.649 -36.724 30.535 91 92 30
111.562 -36.711 30.577 92 87 30
112.487 -36.701 30.607 87 84 30
113.411 -36.692 30.636 87 90 30
-135.526 -44.611 9.474 34 34 5
-133.151 -44.197 10.730 50 52 13
-130.962 -43.839 11.818 83 90 49
-129.157 -43.604 12.532 93 97 59
-127.749 -43.501 12.846 109 109 79
-126.533 -43.461 12.965 113 111 80
-125.263 -43.403 13.144 127 127 81
-123.841 -43.289 13.488 137 145 97
-122.332 -43.144 13.931 139 129 130
-120.861 -43.009 14.340 114 119 102
-119.506 -42.914 14.630 111 113 85
-118.287 -42.866 14.775 117 115 84
-117.180 -42.857 14.800 117 121 97
-116.121 -42.867 14.771 127 125 91
-115.043 -42.870 14.763 119 120 88
-113.912 -42.853 14.815 124 131 90
-112.772 -42.832 14.879 120 118 84
-111.686 -42.831 14.881 129 118 103
-110.647 -42.849 14.827 117 114 90
-109.581 -42.856 14.805 120 117 89
-108.426 -42.828 14.889 116 120 82
-107.206 -42.774 15.053 118 119 86
-106.003 -42.726 15.201 121 127 88
-104.891 -42.713 15.238 127 128 94
-103.893 -42.748 15.134 132 137 121
-102.970 -42.814 14.933 140 140 142
-102.063 -42.888 14.707 138 139 132
-101.147 -42.960 14.488 136 134 135
-100.235 -43.036 14.258 115 115 113
-99.329 -43.116 14.016 119 119 90
-98.406 -43.189 13.792 104 103 90
-97.440 -43.246 13.620 115 117 91
-96.397 -43.269 13.550 133 134 86
-95.221 -43.233 13.660 100 112 94
-93.879 -43.119 14.005 114 199 122
-92.458 -42.966 14.472 85 213 154
-91.163 -42.868 14.767 75 236 155
-90.134 -42.895 14.686 91 255 207
-89.320 -43.026 14.287 72 246 196
-88.541 -43.177 13.828 86 209 184
-87.699 -43.301 13.451 111 183 159
-86.807 -43.404 13.141 109 151 128
-85.880 -43.490 12.878 135 141 132
-84.872 -43.538 12.732 100 114 98
-83.768 -43.537 12.734 129 143 166
-82.660 -43.534 12.744 101 129 127
-81.659 -43.588 12.579 110 110 112
-80.829 -43.736 12.131 101 111 106
-80.022 -43.901 11.629 110 140 150
-79.067 -43.988 11.365 143 138 156
-77.962 -43.993 11.352 102 136 138
-76.823 -43.979 11.394 119 139 132
-75.671 -43.956 11.463 125 145 149
-74.414 -43.871 11.720 138 189 213
-73.039 -43.713 12.202 126 188 201
-71.623 -43.525 12.773 55 198 189
-70.236 -43.349 13.307 71 229 192
-68.940 -43.225 13.685 50 247 183
-67.794 -43.191 13.786 34 243 175
-66.799 -43.255 13.592 27 238 169
-65.886 -43.375 13.229 20 243 170
-64.942 -43.478 12.914 38 233 169
-63.878 -43.503 12.838 42 197 156
-62.678 -43.435 13.046 77 167 159
-61.425 -43.326 13.376 102 119 136
-60.220 -43.249 13.610 90 101 120
-59.113 -43.240 13.639 85 99 101
-58.067 -43.277 13.527 93 95 97
-57.015 -43.309 13.428 96 106 100
-55.910 -43.303 13.447 100 108 115
-54.779 -43.276 13.530 122 126 127
-53.685 -43.277 13.527 111 113 112
-52.653 -43.329 13.367 108 113 109
-51.648 -43.406 13.132 104 104 104
-50.620 -43.468 12.947 99 103 104
-49.557 -43.500 12.848 103 105 104
-48.477 -43.519 12.790 96 101 100
-47.402 -43.544 12.714 99 109 101
-46.332 -43.575 12.622 105 109 99
-45.250 -43.595 12.560 118 119 114
-44.140 -43.589 12.579 118 111 114
-42.997 -43.548 12.701 104 105 100
-41.816 -43.466 12.950 110 113 96
-40.584 -43.326 13.376 123 115 79
-39.279 -43.098 14.071 116 115 68
-37.930 -42.807 14.953 94 89 75
-36.602 -42.523 15.817 71 76 59
-35.323 -42.281 16.553 45 45 43
-33.995 -41.962 17.520 23 22 25
-32.456 -41.355 19.363 22 23 14
-30.681 -40.397 22.276 10 10 10
-28.906 -39.372 25.389 7 10 7
-27.337 -38.565 27.840 12 13 10
-25.962 -37.982 29.612 22 26 16
-24.741 -37.587 30.812 47 44 20
-23.644 -37.357 31.510 66 59 31
-22.627 -37.240 31.867 77 75 28
-21.650 -37.181 32.044 92 86 36
-20.698 -37.162 32.104 92 90 36
-19.764 -37.175 32.063 99 96 60
-18.842 -37.213 31.948 109 107 78
-17.918 -37.252 31.831 106 112 92
-16.982 -37.267 31.785 122 126 127
-16.031 -37.249 31.838 117 116 132
-15.073 -37.212 31.952 118 121 115
-14.117 -37.175 32.064 117 117 117
-13.167 -37.150 32.140 110 116 110
-12.223 -37.139 32.171 124 127 110
-11.291 -37.166 32.092 126 124 107
-10.376 -37.260 31.805 110 113 96
-9.511 -37.569 30.865 92 90 86
-8.748 -38.392 28.365 65 70 66
-8.131 -40.147 23.033 34 43 40
-7.573 -42.731 15.184 19 21 22
-6.795 -44.736 9.093 16 17 12
-5.717 -45.168 7.782 21 17 18
-4.515 -44.583 9.557 19 21 20
-3.324 -43.763 12.048 33 41 47
-2.187 -43.189 13.794 42 50 58
-1.090 -43.050 14.214 58 64 68
0.000 -43.259 13.580 71 84 93
1.103 -43.581 12.604 73 77 92
2.219 -43.829 11.850 95 96 102
3.338 -43.945 11.497 114 117 97
4.451 -43.951 11.477 136 132 81
5.557 -43.900 11.632 150 138 85
6.660 -43.847 11.794 148 143 78
7.767 -43.830 11.845 143 140 75
8.882 -43.855 11.769 151 153 70
10.001 -43.894 11.652 154 146 83
11.117 -43.910 11.602 134 124 75
12.223 -43.890 11.662 160 154 79
13.323 -43.854 11.771 151 160 73
14.427 -43.836 11.829 152 146 71
15.543 -43.852 11.778 156 157 67
16.672 -43.902 11.628 156 154 80
17.813 -43.976 11.404 151 152 76
18.966 -44.069 11.119 143 143 86
20.131 -44.177 10.792 147 142 73
21.309 -44.300 10.418 140 148 102
22.498 -44.434 10.010 140 168 154
23.674 -44.529 9.721 184 218 216
24.764 -44.462 9.926 215 255 255
25.715 -44.162 10.836 253 255 255
26.593 -43.768 12.035 255 255 255
27.483 -43.423 13.081 255 255 255
28.406 -43.155 13.896 241 255 255
29.364 -42.958 14.495 242 255 255
30.388 -42.868 14.768 234 255 255
31.510 -42.919 14.613 208 255 255
32.708 -43.065 14.169 193 236 237
33.912 -43.211 13.727 168 221 201
35.073 -43.293 13.477 157 208 177
36.175 -43.300 13.456 140 182 152
37.219 -43.240 13.637 140 188 159
38.217 -43.130 13.972 148 193 164
39.215 -43.028 14.283 176 218 197
40.302 -43.025 14.292 183 230 219
41.529 -43.168 13.856 209 255 253
42.876 -43.426 13.074 225 255 255
44.274 -43.720 12.179 248 255 255
45.653 -43.983 11.382 251 255 255
46.941 -44.147 10.883 245 255 255
48.075 -44.161 10.839 231 255 255
49.049 -44.033 11.230 221 255 255
49.923 -43.821 11.873 193 240 245
50.771 -43.597 12.554 163 198 195
51.651 -43.409 13.126 139 147 112
52.583 -43.271 13.543 140 140 81
53.552 -43.169 13.853 142 151 80
54.538 -43.085 14.110 141 147 86
55.539 -43.016 14.319 118 124 88
56.572 -42.973 14.449 117 116 91
57.643 -42.960 14.488 119 123 99
58.736 -42.964 14.476 131 134 106
59.820 -42.962 14.484 127 132 115
60.874 -42.938 14.556 151 152 102
61.906 -42.900 14.671 151 152 102
62.945 -42.868 14.769 157 153 84
64.010 -42.854 14.811 156 159 85
65.093 -42.853 14.813 155 147 86
66.176 -42.851 14.819 139 136 85
67.242 -42.839 14.855 140 138 84
68.293 -42.819 14.918 128 127 89
69.345 -42.799 14.978 143 134 94
70.404 -42.784 15.023 136 131 91
71.461 -42.768 15.071 137 137 96
72.497 -42.741 15.154 136 135 99
73.501 -42.696 15.292 115 120 105
74.468 -42.630 15.490 116 123 123
75.388 -42.540 15.764 121 138 145
76.234 -42.412 16.154 90 94 113
76.956 -42.219 16.740 95 109 136
77.560 -41.967 17.504 82 96 121
78.170 -41.726 18.237 48 61 75
79.062 -41.640 18.500 56 63 76
80.460 -41.818 17.957 38 42 59
82.331 -42.235 16.691 39 42 55
84.347 -42.714 15.235 26 27 36
86.038 -43.019 14.310 28 32 35
87.038 -42.975 14.443 13 17 5
87.273 -42.559 15.707 12 12 12
87.219 -42.014 17.362 10 10 10
87.694 -41.734 18.214 12 13 10
88.569 -41.648 18.473 15 15 15
89.035 -41.375 19.303 40 42 32
88.812 -40.792 21.076 74 76 75
88.054 -39.979 23.546 87 92 92
87.166 -39.126 26.137 103 105 106
86.633 -38.450 28.191 123 123 123
86.745 -38.072 29.339 134 130 140
87.429 -37.950 29.709 130 146 129
88.399 -37.954 29.697 129 129 127
89.416 -37.978 29.624 131 134 156
90.394 -37.985 29.604 129 133 145
91.342 -37.979 29.621 142 157 161
92.292 -37.974 29.635 138 153 162
93.252 -37.974 29.637 135 152 155
94.204 -37.970 29.648 115 138 135
95.120 -37.952 29.703 121 125 130
95.998 -37.919 29.802 125 125 136
96.854 -37.878 29.926 109 134 132
97.695 -37.833 30.065 111 123 119
98.509 -37.778 30.232 112 116 103
99.309 -37.718 30.413 105 110 63
100.150 -37.675 30.543 101 102 52
101.085 -37.668 30.565 95 96 50
102.108 -37.694 30.487 94 91 37
103.171 -37.734 30.365 91 91 34
104.239 -37.775 30.242 86 77 35
105.284 -37.807 30.144 92 90 34
106.285 -37.822 30.097 92 91 28
107.215 -37.812 30.127 83 75 23
108.070 -37.777 30.235 97 91 27
108.895 -37.731 30.374 93 87 39
109.753 -37.698 30.475 99 95 33
110.670 -37.685 30.514 98 93 36
111.619 -37.683 30.519 96 94 38
112.563 -37.680 30.529 94 88 42
113.494 -37.672 30.552 85 88 25
-138.655 -46.796 6.345 16 17 8
-135.539 -46.129 8.322 36 36 9
-132.637 -45.524 10.115 48 59 14
-130.262 -45.091 11.398 71 81 48
-128.456 -44.849 12.115 83 85 57
-126.961 -44.712 12.519 83 89 66
-125.472 -44.576 12.924 109 113 75
-123.873 -44.397 13.453 121 126 83
-122.246 -44.205 14.022 118 123 94
-120.721 -44.047 14.491 110 114 92
-119.351 -43.943 14.799 114 116 88
-118.117 -43.888 14.963 114 117 84
-116.977 -43.866 15.026 106 111 96
-115.882 -43.862 15.039 108 114 96
-114.794 -43.860 15.044 120 121 89
-113.690 -43.852 15.068 121 120 102
-112.606 -43.851 15.070 124 123 98
-111.596 -43.880 14.985 120 123 92
-110.643 -43.932 14.832 118 120 92
-109.640 -43.964 14.735 112 117 90
-108.498 -43.942 14.802 120 121 89
-107.251 -43.875 14.999 112 114 86
-106.019 -43.814 15.181 119 119 92
-104.904 -43.800 15.222 125 134 92
-103.920 -43.841 15.100 125 127 126
-102.991 -43.907 14.906 137 139 156
-102.032 -43.960 14.747 140 138 152
-101.027 -43.996 14.643 127 127 113
-100.035 -44.037 14.520 109 108 102
-99.099 -44.104 14.320 113 114 91
-98.200 -44.190 14.066 106 107 88
-97.295 -44.275 13.815 117 120 73
-96.343 -44.340 13.624 123 119 89
-95.290 -44.359 13.566 118 117 93
-94.073 -44.302 13.735 117 134 85
-92.707 -44.172 14.120 100 189 129
-91.336 -44.037 14.520 73 214 141
-90.121 -43.975 14.705 58 241 165
-89.121 -44.017 14.580 52 247 170
-88.259 -44.130 14.245 41 247 170
-87.456 -44.274 13.816 81 225 176
-86.646 -44.420 13.386 85 181 139
-85.767 -44.533 13.050 85 160 119
-84.764 -44.583 12.901 113 152 150
-83.650 -44.576 12.922 149 147 173
-82.542 -44.572 12.934 130 154 150
-81.544 -44.629 12.766 138 141 124
-80.672 -44.756 12.389 89 89 89
-79.753 -44.861 12.078 76 92 87
-78.648 -44.863 12.073 127 148 114
-77.429 -44.798 12.265 108 124 135
-76.271 -44.768 12.355 106 114 120
-75.182 -44.777 12.326 63 136 109
-74.012 -44.739 12.441 91 189 161
-72.694 -44.607 12.830 67 207 212
-71.310 -44.432 13.351 43 228 181
-69.976 -44.282 13.794 46 244 172
-68.773 -44.212 14.003 37 235 170
-67.724 -44.239 13.922 31 231 162
-66.796 -44.348 13.598 22 236 164
-65.914 -44.492 13.173 32 222 160
-64.978 -44.603 12.842 44 197 143
-63.902 -44.621 12.788 59 170 130
-62.678 -44.535 13.046 88 133 120
-61.397 -44.403 13.436 97 106 126
-60.166 -44.304 13.728 99 105 112
-59.042 -44.281 13.797 88 89 95
-57.999 -44.320 13.682 88 95 93
-56.967 -44.369 13.537 105 113 108
-55.887 -44.381 13.501 117 128 145
-54.767 -44.362 13.559 124 126 127
-53.671 -44.361 13.561 107 110 118
-52.633 -44.409 13.417 101 108 105
-51.627 -44.487 13.186 106 113 113
-50.602 -44.552 12.995 98 107 106
-49.540 -44.586 12.895 110 112 109
-48.457 -44.603 12.844 103 105 102
-47.379 -44.625 12.778 103 111 104
-46.308 -44.654 12.692 104 105 98
-45.223 -44.672 12.639 105 107 99
-44.102 -44.653 12.694 117 123 119
-42.927 -44.578 12.916 124 123 98
-41.699 -44.442 13.320 116 116 86
-40.427 -44.251 13.886 103 98 70
-39.121 -44.011 14.597 89 92 73
-37.837 -43.783 15.273 69 72 66
-36.641 -43.646 15.679 50 53 48
-35.513 -43.584 15.862 33 34 29
-34.210 -43.297 16.713 19 16 17
-32.394 -42.321 19.605 12 12 12
-30.189 -40.755 24.246 10 10 8
-28.263 -39.471 28.049 11 12 9
-26.828 -38.804 30.024 21 26 13
-25.658 -38.487 30.963 38 41 13
-24.601 -38.321 31.456 63 60 24
-23.603 -38.236 31.707 74 69 28
-22.633 -38.193 31.835 86 86 33
-21.674 -38.165 31.920 90 96 44
-20.723 -38.150 31.964 108 107 73
-19.784 -38.155 31.948 106 104 89
-18.851 -38.174 31.893 108 112 102
-17.911 -38.179 31.876 120 126 145
-16.957 -38.153 31.955 121 129 138
-15.993 -38.100 32.110 116 121 117
-15.032 -38.050 32.259 122 126 120
-14.083 -38.025 32.332 122 123 116
-13.145 -38.026 32.330 129 129 115
-12.212 -38.045 32.275 127 126 117
-11.294 -38.117 32.061 117 112 102
-10.413 -38.340 31.401 100 99 92
-9.641 -39.047 29.305 80 81 76
-9.053 -40.739 24.291 46 56 50
-8.566 -43.363 16.516 28 30 32
-7.855 -45.448 10.339 20 21 18
-6.804 -45.930 8.912 15 13 13
-5.613 -45.461 10.300 21 22 31
-4.427 -44.822 12.194 38 41 49
-3.285 -44.342 13.618 39 49 57
-2.181 -44.163 14.147 50 52 65
-1.094 -44.303 13.733 63 70 83
0.000 -44.614 12.811 74 78 95
1.108 -44.892 11.986 102 104 103
2.224 -45.031 11.574 111 114 108
3.337 -45.048 11.525 130 131 96
4.444 -44.998 11.671 142 138 78
5.547 -44.931 11.873 155 145 80
6.649 -44.880 12.023 158 150 73
7.755 -44.869 12.055 164 156 81
8.869 -44.897 11.971 170 156 85
9.985 -44.934 11.863 154 151 72
11.097 -44.943 11.836 154 158 75
12.198 -44.912 11.928 155 151 89
13.293 -44.865 12.066 165 144 78
14.393 -44.841 12.138 166 161 81
15.508 -44.862 12.076 153 158 86
16.641 -44.932 11.869 150 155 82
