ply
format ascii 1.0
comment PLY generated with DepthInition by Giancarlo Todone
element vertex 1494
property float x
property float y
property float z
property uchar red
property uchar green
property uchar blue
end_header
25.877 5.474 90.817 117 122 121
26.815 5.462 91.072 120 125 121
27.751 5.451 91.318 119 124 120
28.687 5.441 91.545 116 123 121
29.630 5.432 91.732 116 121 117
30.598 5.429 91.806 114 117 116
31.614 5.434 91.698 115 120 116
32.670 5.445 91.449 115 118 117
33.737 5.457 91.179 120 124 116
34.783 5.466 90.994 122 122 122
35.783 5.467 90.975 122 122 120
36.718 5.458 91.165 118 119 116
37.610 5.443 91.483 117 117 115
38.501 5.430 91.785 118 116 110
39.436 5.423 91.941 114 112 110
40.418 5.422 91.954 117 113 108
41.413 5.423 91.927 117 111 108
42.392 5.422 91.947 111 108 98
43.371 5.421 91.967 105 104 95
44.385 5.425 91.890 105 103 90
45.496 5.440 91.564 100 99 81
46.844 5.482 90.650 93 94 73
48.753 5.586 88.368 89 93 67
51.711 5.804 83.611 85 87 61
56.282 6.191 75.174 82 81 60
63.071 6.802 61.847 70 70 45
72.254 7.642 43.509 66 69 38
82.858 8.598 22.646 57 61 34
92.804 9.452 4.018 56 54 20
100.191 10.019 -8.349 55 56 24
103.761 10.191 -12.095 61 56 26
102.782 9.918 -6.133 59 58 20
97.617 9.257 8.283 63 57 36
90.393 8.426 26.399 62 66 44
83.822 7.684 42.606 74 72 43
79.262 7.147 54.324 72 74 48
76.588 6.794 62.016 82 78 61
75.204 6.565 67.005 83 82 60
74.658 6.416 70.267 92 87 71
74.703 6.321 72.337 99 96 70
75.201 6.267 73.521 100 100 75
76.024 6.241 74.087 102 103 83
77.050 6.232 74.280 98 101 84
78.165 6.231 74.310 109 112 91
79.298 6.231 74.311 112 112 96
80.427 6.230 74.318 118 116 101
81.594 6.233 74.260 118 116 99
82.861 6.243 74.040 123 124 108
84.247 6.262 73.634 121 123 106
85.684 6.283 73.156 124 126 103
87.063 6.301 72.782 123 124 106
88.310 6.308 72.624 119 121 109
89.419 6.305 72.682 123 123 112
90.421 6.295 72.902 118 121 106
91.359 6.281 73.212 121 123 108
92.300 6.267 73.509 118 120 108
93.320 6.259 73.684 119 124 108
94.447 6.259 73.701 121 123 110
95.639 6.262 73.623 121 123 110
96.832 6.266 73.547 122 122 108
97.993 6.267 73.515 119 121 109
99.120 6.266 73.532 121 121 107
100.208 6.263 73.603 122 124 110
101.240 6.256 73.746 122 123 114
102.228 6.247 73.946 122 122 120
103.226 6.239 74.128 123 124 117
104.304 6.236 74.201 123 123 112
105.494 6.239 74.129 120 119 110
106.768 6.247 73.951 121 122 112
108.063 6.256 73.750 119 120 115
109.325 6.263 73.593 118 119 112
110.540 6.268 73.500 118 120 108
111.721 6.270 73.449 119 121 111
112.895 6.272 73.408 118 122 111
114.087 6.275 73.345 115 116 107
115.312 6.279 73.246 116 116 114
116.595 6.287 73.079 115 115 113
117.954 6.299 72.828 114 119 113
119.379 6.313 72.505 113 116 113
120.846 6.330 72.141 113 116 113
122.308 6.346 71.788 115 116 109
123.698 6.358 71.524 106 114 111
124.931 6.362 71.437 111 113 112
125.996 6.358 71.539 111 113 114
126.977 6.349 71.730 107 109 111
128.001 6.342 71.871 111 113 112
129.134 6.341 71.893 103 117 112
130.394 6.347 71.779 100 109 111
131.766 6.357 71.549 106 110 111
133.201 6.370 71.257 108 112 113
134.637 6.384 70.970 107 109 113
136.036 6.395 70.725 104 106 107
137.412 6.405 70.509 106 113 113
138.784 6.414 70.300 104 113 112
-135.977 5.099 74.273 127 129 92
-134.784 5.097 74.334 133 133 92
-133.582 5.094 74.404 129 125 97
-132.376 5.091 74.480 130 129 95
-131.159 5.088 74.568 129 122 94
-129.922 5.084 74.679 135 132 94
-128.691 5.080 74.786 133 132 82
-127.510 5.078 74.842 134 131 95
-126.380 5.078 74.842 130 128 88
-125.268 5.078 74.825 127 126 87
-124.164 5.079 74.799 127 126 85
-123.081 5.081 74.748 127 129 92
-122.041 5.085 74.649 128 127 89
-121.040 5.090 74.504 130 133 100
-120.049 5.096 74.345 133 133 92
-119.016 5.101 74.232 136 134 90
-117.888 5.101 74.225 133 133 92
-116.666 5.097 74.329 135 134 84
-115.407 5.091 74.477 135 132 94
-114.169 5.087 74.603 131 137 101
-112.953 5.083 74.707 132 133 98
-111.720 5.078 74.832 130 127 94
-110.463 5.072 74.990 135 134 94
-109.221 5.067 75.131 128 135 91
-108.022 5.064 75.223 136 130 95
-106.861 5.062 75.268 133 130 92
-105.725 5.061 75.282 130 131 92
-104.602 5.061 75.280 132 126 94
-103.477 5.061 75.280 132 129 89
-102.339 5.061 75.298 130 128 97
-101.192 5.060 75.328 127 131 91
-100.054 5.059 75.345 127 131 93
-98.968 5.061 75.294 126 129 94
-97.979 5.068 75.107 129 132 99
-97.066 5.079 74.809 124 124 92
-96.109 5.088 74.567 126 128 98
-94.979 5.088 74.566 128 126 93
-93.667 5.078 74.827 129 124 99
-92.301 5.065 75.175 120 123 92
-91.008 5.056 75.423 121 123 97
-89.803 5.051 75.546 129 132 113
-88.643 5.049 75.602 133 136 119
-87.494 5.048 75.644 135 136 115
-86.430 5.051 75.554 133 135 135
-85.602 5.069 75.089 126 134 129
-85.111 5.107 74.072 126 130 119
-84.831 5.159 72.687 126 128 128
-84.391 5.202 71.525 129 132 131
-83.429 5.214 71.201 127 143 144
-81.878 5.189 71.864 133 152 163
-80.036 5.145 73.046 130 150 178
-78.310 5.107 74.059 138 151 181
-76.958 5.093 74.441 142 164 196
-75.939 5.100 74.240 153 184 219
-75.100 5.120 73.704 169 193 242
-74.288 5.143 73.102 177 206 255
-73.393 5.160 72.639 177 213 255
-72.360 5.169 72.422 180 220 255
-71.247 5.171 72.353 187 228 255
-70.377 5.192 71.804 194 235 255
-70.307 5.273 69.637 202 246 255
-71.667 5.466 64.487 205 255 255
-74.540 5.783 56.030 205 255 255
-77.691 6.133 46.690 197 255 255
-78.531 6.311 41.969 195 255 255
-75.355 6.165 45.840 204 255 255
-69.986 5.832 54.727 204 255 255
-65.370 5.550 62.243 201 253 255
-62.464 5.406 66.102 201 249 255
-60.670 5.353 67.497 203 237 255
-59.209 5.329 68.149 193 229 255
-57.716 5.300 68.905 191 217 255
-56.238 5.272 69.656 184 210 255
-54.923 5.259 70.020 176 209 255
-53.874 5.270 69.709 166 199 255
-53.069 5.307 68.733 164 194 252
-52.322 5.351 67.553 157 180 248
-51.395 5.378 66.823 157 184 241
-50.179 5.376 66.881 145 175 226
-48.756 5.351 67.549 146 176 227
-47.224 5.313 68.579 144 177 229
-45.659 5.268 69.761 150 171 225
-44.219 5.236 70.611 154 170 228
-43.152 5.248 70.299 148 172 223
-42.514 5.314 68.538 146 176 229
-42.002 5.400 66.243 152 187 248
-41.243 5.459 64.687 158 202 255
-40.171 5.478 64.174 170 210 255
-39.103 5.499 63.613 173 208 255
-38.587 5.601 60.882 174 215 255
-39.491 5.924 52.284 176 222 255
-42.452 6.587 34.586 179 224 255
-46.631 7.494 10.402 184 226 255
-49.251 8.208 -8.643 182 224 255
-48.054 8.317 -11.539 181 221 255
-43.454 7.822 1.671 178 220 255
-37.612 7.052 22.190 173 217 255
-32.576 6.374 40.288 171 211 255
-29.166 5.966 51.161 164 202 255
-26.997 5.785 55.982 157 189 255
-25.294 5.691 58.483 146 172 250
-23.614 5.593 61.109 136 167 229
-21.937 5.484 64.006 127 153 203
-20.374 5.393 66.432 124 141 177
-18.953 5.331 68.103 117 132 154
-17.636 5.291 69.164 110 122 129
-16.380 5.265 69.849 108 113 120
-15.159 5.248 70.316 98 104 111
-13.963 5.236 70.623 102 105 114
-12.787 5.231 70.754 98 104 109
-11.628 5.233 70.711 96 104 108
-10.476 5.238 70.574 103 107 113
-9.320 5.243 70.445 106 110 113
-8.164 5.248 70.292 107 109 111
-7.012 5.259 70.000 100 109 111
-5.861 5.275 69.585 100 102 106
-4.698 5.286 69.298 95 96 102
-3.520 5.279 69.464 96 103 103
-2.336 5.256 70.102 93 97 100
-1.162 5.229 70.821 86 88 92
0.000 5.236 70.621 87 91 96
1.185 5.335 67.994 83 85 89
2.485 5.591 61.159 79 85 85
4.003 6.005 50.128 84 88 91
5.695 6.407 39.396 80 84 87
7.269 6.542 35.791 81 86 86
8.424 6.318 41.778 85 89 90
9.093 5.845 54.378 84 85 92
9.437 5.308 68.695 84 91 93
9.753 4.876 80.215 83 90 92
10.287 4.629 86.806 92 101 102
11.073 4.530 89.452 97 103 108
12.009 4.503 90.162 97 105 109
13.001 4.500 90.241 110 110 112
14.000 4.500 90.246 106 107 114
14.989 4.497 90.336 114 116 122
15.969 4.491 90.479 117 118 122
16.951 4.487 90.598 120 122 124
17.939 4.485 90.655 121 121 121
18.938 4.485 90.645 119 126 124
19.944 4.487 90.583 119 126 124
20.955 4.490 90.507 117 119 118
21.970 4.494 90.412 115 120 116
22.996 4.499 90.270 108 111 108
24.042 4.508 90.042 112 112 112
25.100 4.518 89.771 111 111 111
26.150 4.526 89.557 109 114 112
27.184 4.531 89.434 107 112 108
28.196 4.531 89.412 108 113 111
29.175 4.527 89.528 112 113 110
30.112 4.517 89.804 110 113 107
31.021 4.503 90.168 113 116 113
31.934 4.491 90.499 114 115 106
32.862 4.481 90.751 115 115 113
33.809 4.475 90.925 108 113 109
34.774 4.471 91.023 115 115 113
35.744 4.468 91.104 115 115 115
36.686 4.462 91.269 115 115 113
37.598 4.452 91.519 115 118 117
38.505 4.443 91.772 115 118 115
39.442 4.437 91.923 118 116 110
40.419 4.436 91.949 113 109 108
41.426 4.439 91.889 114 110 109
42.441 4.442 91.810 115 109 102
43.448 4.444 91.755 110 105 97
44.442 4.444 91.738 103 106 87
45.439 4.445 91.713 105 103 86
46.507 4.453 91.510 102 101 78
47.808 4.482 90.731 93 100 75
49.640 4.559 88.683 89 88 65
52.500 4.725 84.250 89 85 68
57.197 5.047 75.670 78 77 55
64.476 5.580 61.458 73 72 47
74.200 6.300 42.251 67 65 36
84.794 7.066 21.819 65 63 34
94.172 7.705 4.784 57 53 22
100.636 8.087 -5.399 60 59 25
103.226 8.149 -7.068 59 60 23
101.896 7.906 -0.568 59 65 29
97.746 7.455 11.444 67 66 32
92.488 6.937 25.275 68 68 40
87.326 6.442 38.460 67 69 46
82.781 6.008 50.028 77 76 54
79.201 5.657 59.391 75 74 49
76.844 5.403 66.167 83 87 63
75.703 5.241 70.490 85 86 65
75.561 5.152 72.866 87 89 63
76.108 5.112 73.937 94 96 72
77.045 5.099 74.288 98 102 82
78.135 5.096 74.363 105 106 85
79.253 5.095 74.387 102 103 87
80.370 5.094 74.413 109 110 92
81.518 5.095 74.386 111 114 99
82.743 5.101 74.234 118 118 102
84.053 5.111 73.947 115 117 103
85.407 5.124 73.600 121 124 102
86.740 5.136 73.292 122 122 108
88.010 5.143 73.091 121 121 107
89.194 5.146 73.028 120 118 105
90.272 5.142 73.127 122 124 108
91.251 5.133 73.373 122 124 108
92.199 5.122 73.659 122 122 108
93.221 5.116 73.829 116 117 108
94.375 5.117 73.804 118 121 106
95.628 5.123 73.639 123 126 105
96.897 5.130 73.455 124 126 116
98.124 5.134 73.332 122 123 116
99.292 5.136 73.296 122 124 110
100.393 5.134 73.350 119 123 112
101.417 5.128 73.508 110 118 101
102.372 5.119 73.754 123 124 119
103.318 5.109 74.007 121 122 115
104.338 5.103 74.157 121 123 108
105.482 5.104 74.144 119 121 113
106.727 5.109 74.002 121 122 112
108.011 5.116 73.816 122 123 116
109.275 5.122 73.656 119 117 111
110.494 5.126 73.557 114 118 108
111.664 5.127 73.518 115 121 114
112.809 5.128 73.512 116 117 108
113.968 5.129 73.488 118 119 112
115.180 5.132 73.403 116 117 110
116.488 5.139 73.205 115 119 113
117.909 5.151 72.880 110 112 109
119.413 5.167 72.466 112 115 110
120.929 5.183 72.045 112 115 112
122.386 5.196 71.700 116 116 116
123.721 5.203 71.498 111 113 112
124.891 5.204 71.482 110 112 111
125.905 5.198 71.639 107 112 110
126.847 5.189 71.872 110 112 109
127.835 5.182 72.050 110 112 111
128.948 5.181 72.092 104 111 113
130.226 5.186 71.956 109 114 114
131.667 5.197 71.653 106 107 114
133.187 5.212 71.272 104 116 112
134.651 5.224 70.956 108 111 112
135.977 5.230 70.787 108 110 114
137.199 5.232 70.726 99 108 109
138.394 5.233 70.693 102 114 112
-135.938 3.965 74.312 134 131 93
-134.759 3.963 74.359 136 129 90
-133.566 3.962 74.420 130 129 84
-132.365 3.960 74.491 130 131 94
-131.142 3.957 74.586 130 129 91
-129.884 3.953 74.719 130 135 94
-128.627 3.949 74.853 124 125 90
-127.434 3.947 74.922 128 127 87
-126.319 3.947 74.908 132 134 94
-125.232 3.949 74.864 127 129 90
-124.142 3.950 74.822 133 128 91
-123.050 3.951 74.782 127 122 98
-121.969 3.953 74.729 130 130 89
-120.903 3.955 74.658 126 129 81
-119.846 3.957 74.575 133 130 92
-118.781 3.959 74.501 131 136 94
-117.667 3.960 74.481 136 133 98
-116.487 3.958 74.537 139 136 98
-115.278 3.956 74.629 135 132 94
-114.089 3.954 74.699 135 132 94
-112.914 3.952 74.753 135 134 94
-111.705 3.949 74.850 135 132 94
-110.443 3.944 75.014 135 132 96
-109.176 3.939 75.187 131 133 93
-107.959 3.936 75.302 130 135 92
-106.805 3.935 75.339 131 133 89
-105.697 3.936 75.318 130 134 96
-104.604 3.937 75.277 123 123 91
-103.497 3.937 75.254 130 131 96
-102.362 3.937 75.268 128 130 93
-101.202 3.936 75.315 131 130 94
-100.041 3.934 75.364 133 127 104
-98.923 3.934 75.355 128 125 101
-97.907 3.939 75.206 125 130 99
-96.986 3.947 74.921 131 130 96
-96.047 3.955 74.655 129 127 96
-94.947 3.956 74.612 121 122 92
-93.654 3.949 74.847 125 125 95
-92.279 3.939 75.207 128 124 105
-90.955 3.930 75.503 124 127 97
-89.709 3.925 75.686 127 122 108
-88.504 3.921 75.813 121 130 100
-87.307 3.918 75.931 134 134 109
-86.167 3.917 75.963 125 129 118
-85.191 3.923 75.738 126 132 123
-84.461 3.942 75.112 126 127 124
-83.931 3.970 74.146 122 126 118
-83.387 3.998 73.176 126 124 120
-82.554 4.013 72.660 122 133 125
-81.306 4.008 72.831 121 136 140
-79.782 3.989 73.481 134 148 161
-78.259 3.970 74.147 131 152 165
-76.968 3.962 74.424 138 157 185
-75.915 3.966 74.282 136 167 200
-74.991 3.977 73.903 162 186 235
-74.077 3.989 73.493 173 197 255
-73.104 3.998 73.180 175 209 255
-72.048 4.003 73.016 181 211 255
-70.958 4.006 72.912 181 216 255
-70.125 4.024 72.300 191 231 255
-70.049 4.086 70.152 198 237 255
-71.583 4.246 64.658 198 251 255
-75.440 4.552 54.167 200 255 255
-80.786 4.961 40.175 196 255 255
-83.962 5.248 30.332 201 255 255
-81.135 5.163 33.229 201 255 255
-73.880 4.788 46.073 201 255 255
-67.033 4.427 58.478 199 255 255
-62.807 4.227 65.312 199 244 255
-60.608 4.159 67.644 194 232 255
-59.238 4.147 68.079 191 225 255
-57.882 4.134 68.499 181 212 255
-56.313 4.106 69.469 183 212 255
-54.698 4.073 70.597 174 195 255
-53.380 4.062 70.997 162 196 239
-52.512 4.084 70.218 156 178 221
-51.845 4.124 68.854 150 171 212
-50.976 4.149 67.993 142 164 207
-49.728 4.144 68.169 135 158 198
-48.251 4.119 69.028 129 165 196
-46.721 4.088 70.087 133 168 204
-45.236 4.060 71.062 139 153 191
-43.922 4.045 71.550 146 148 190
-42.960 4.064 70.919 142 165 205
-42.348 4.117 69.089 137 172 222
-41.822 4.182 66.860 143 178 246
-41.118 4.233 65.127 158 199 255
-40.242 4.268 63.916 164 205 255
-39.535 4.324 61.995 177 210 255
-39.606 4.472 56.935 186 219 255
-41.325 4.821 44.950 177 220 255
-44.934 5.423 24.315 176 216 255
-48.745 6.093 1.342 182 223 255
-49.778 6.453 -10.985 179 224 255
-46.926 6.317 -6.334 182 223 255
-41.700 5.838 10.091 178 214 255
-36.241 5.285 29.046 172 209 255
-31.864 4.849 44.005 163 206 255
-28.784 4.579 53.247 159 195 255
-26.577 4.429 58.384 153 183 255
-24.757 4.333 61.707 140 170 251
-23.083 4.252 64.463 127 158 218
-21.518 4.184 66.795 118 138 183
-20.083 4.135 68.487 119 134 166
-18.761 4.104 69.540 113 125 146
-17.515 4.087 70.132 100 118 118
-16.306 4.077 70.482 100 109 109
-15.114 4.069 70.732 104 105 114
-13.934 4.064 70.907 99 110 111
-12.769 4.063 70.955 98 104 109
-11.616 4.066 70.854 105 106 113
-10.467 4.071 70.687 101 111 110
-9.312 4.074 70.565 101 112 113
-8.154 4.077 70.473 108 110 116
-6.998 4.082 70.296 106 108 112
-5.843 4.090 70.023 104 104 106
-4.680 4.095 69.847 98 100 104
-3.505 4.090 70.036 93 97 100
-2.329 4.075 70.527 89 94 95
-1.162 4.068 70.767 85 87 89
0.000 4.109 69.374 83 83 87
1.215 4.254 64.410 80 84 87
2.594 4.539 54.612 77 79 81
4.196 4.895 42.416 73 77 80
5.857 5.124 34.554 75 77 78
7.247 5.073 36.315 80 85 85
8.180 4.771 46.656 78 80 84
8.721 4.361 60.745 85 87 89
9.088 3.976 73.931 84 91 93
9.522 3.703 83.293 86 89 97
10.171 3.560 88.192 93 102 104
11.028 3.509 89.947 104 105 109
11.998 3.499 90.271 104 110 115
13.003 3.501 90.223 105 111 118
14.000 3.500 90.247 106 107 114
14.980 3.495 90.410 117 118 122
15.953 3.490 90.602 118 118 120
16.933 3.486 90.723 122 122 122
17.922 3.485 90.767 120 125 123
18.920 3.485 90.752 118 118 118
19.931 3.488 90.664 117 117 117
20.964 3.494 90.457 114 114 110
22.048 3.508 89.991 110 115 114
23.221 3.534 89.099 110 112 111
24.510 3.574 87.699 105 108 105
25.885 3.624 86.004 100 103 102
27.267 3.671 84.403 100 103 100
28.611 3.709 83.088 105 108 103
29.900 3.737 82.109 97 105 100
31.090 3.752 81.600 103 103 101
32.112 3.746 81.803 107 111 105
32.923 3.717 82.806 105 111 102
33.557 3.670 84.411 100 100 100
34.092 3.616 86.280 103 105 102
34.628 3.565 88.034 106 109 104
35.252 3.525 89.385 109 109 107
35.986 3.499 90.297 108 109 102
36.786 3.480 90.943 114 112 110
37.623 3.465 91.439 109 107 110
38.494 3.455 91.808 106 109 104
39.412 3.449 92.013 114 112 108
40.384 3.447 92.052 113 110 102
41.405 3.450 91.949 110 110 108
42.454 3.456 91.772 114 113 104
43.497 3.460 91.623 111 108 98
44.498 3.461 91.590 114 108 99
45.451 3.458 91.682 105 108 91
46.396 3.455 91.793 105 103 86
47.409 3.457 91.728 97 95 78
48.647 3.475 91.116 92 91 69
50.436 3.531 89.204 93 94 75
53.427 3.667 84.540 80 82 58
58.439 3.933 75.392 81 77 58
65.964 4.356 60.897 74 73 48
75.454 4.890 42.576 66 69 40
85.336 5.430 24.062 60 63 33
93.743 5.859 9.372 59 65 27
99.536 6.112 0.701 53 53 25
102.509 6.186 -1.836 53 54 19
102.979 6.109 0.801 63 63 34
101.320 5.910 7.609 62 60 33
97.614 5.601 18.223 66 64 24
92.109 5.200 31.974 65 67 41
86.014 4.779 46.414 74 71 49
80.957 4.427 58.455 79 75 58
77.801 4.189 66.618 82 81 56
76.487 4.056 71.182 80 83 62
76.491 3.996 73.251 89 93 67
77.215 3.974 73.989 92 91 73
78.210 3.967 74.232 100 102 78
79.267 3.963 74.364 106 106 81
80.343 3.961 74.459 110 108 90
81.460 3.960 74.483 104 107 88
82.639 3.962 74.406 113 111 98
83.870 3.967 74.245 112 115 98
85.131 3.973 74.041 120 121 100
86.399 3.979 73.831 121 124 104
87.658 3.984 73.640 122 124 112
88.880 3.988 73.511 124 124 113
90.014 3.988 73.519 121 120 102
91.035 3.983 73.698 121 123 110
92.002 3.975 73.950 122 122 120
93.041 3.971 74.092 117 119 105
94.232 3.974 74.011 121 123 108
95.548 3.981 73.753 118 121 104
96.891 3.990 73.463 119 124 108
98.182 3.996 73.252 116 114 113
99.388 3.998 73.163 120 126 115
100.510 3.998 73.190 121 126 111
101.550 3.994 73.329 121 126 113
102.519 3.987 73.559 119 119 105
103.462 3.979 73.817 122 122 110
104.459 3.974 73.999 119 120 115
105.565 3.973 74.038 123 122 114
106.768 3.975 73.950 118 117 106
108.016 3.980 73.808 118 119 114
109.262 3.983 73.673 118 121 115
110.472 3.986 73.584 120 124 116
111.624 3.987 73.567 112 115 110
112.724 3.985 73.615 118 119 114
113.827 3.984 73.657 115 119 109
115.013 3.986 73.601 115 116 109
116.354 3.993 73.363 112 113 110
117.855 4.005 72.943 115 116 109
119.434 4.019 72.441 112 113 110
120.966 4.032 72.003 114 114 110
122.357 4.040 71.733 113 116 113
123.581 4.042 71.655 113 116 115
124.660 4.040 71.739 109 116 112
125.640 4.034 71.931 101 106 104
126.598 4.028 72.143 110 115 114
127.622 4.024 72.280 108 115 112
128.778 4.024 72.273 105 109 112
130.116 4.030 72.074 106 108 110
131.633 4.041 71.689 107 110 109
133.218 4.054 71.240 110 112 113
134.688 4.064 70.918 111 113 114
135.939 4.067 70.826 107 111 112
137.026 4.064 70.902 110 112 111
138.067 4.061 71.023 105 109 110
-135.921 2.832 74.329 130 132 90
-134.740 2.831 74.378 129 127 85
-133.543 2.829 74.444 131 131 90
-132.333 2.828 74.524 129 129 88
-131.102 2.825 74.628 124 123 87
-129.839 2.823 74.766 135 133 90
-128.583 2.820 74.900 134 131 93
-127.396 2.818 74.962 128 131 89
-126.291 2.819 74.938 131 131 92
-125.214 2.820 74.884 132 133 87
-124.121 2.821 74.845 131 133 91
-123.006 2.821 74.830 132 133 96
-121.874 2.821 74.835 134 129 103
-120.724 2.821 74.859 134 131 93
-119.571 2.820 74.886 133 130 90
-118.436 2.820 74.895 129 134 100
-117.319 2.820 74.882 135 132 92
-116.206 2.821 74.864 131 130 94
-115.102 2.821 74.836 132 133 96
-114.023 2.822 74.777 137 135 93
-112.940 2.824 74.722 136 136 95
-111.783 2.823 74.756 131 130 94
-110.518 2.819 74.922 133 131 102
-109.205 2.815 75.151 130 127 92
-107.934 2.811 75.332 131 130 94
-106.751 2.809 75.407 131 131 90
-105.643 2.810 75.387 128 132 94
-104.567 2.811 75.325 130 128 88
-103.476 2.812 75.281 130 127 92
-102.348 2.812 75.285 128 130 93
-101.185 2.811 75.336 123 123 91
-100.011 2.809 75.404 130 127 103
-98.866 2.809 75.433 127 130 97
-97.801 2.810 75.352 125 124 100
-96.822 2.815 75.149 123 122 95
-95.850 2.819 74.932 129 123 107
-94.763 2.820 74.874 125 126 91
-93.518 2.817 75.043 126 127 95
-92.187 2.811 75.342 124 124 94
-90.878 2.805 75.616 121 121 96
-89.626 2.801 75.810 119 121 95
-88.407 2.798 75.961 124 127 99
-87.199 2.795 76.098 123 126 107
-86.033 2.793 76.172 121 125 115
-84.977 2.795 76.076 121 124 121
-84.077 2.803 75.727 119 119 119
-83.317 2.815 75.141 121 120 123
-82.601 2.829 74.467 122 125 124
-81.777 2.839 73.955 124 122 123
-80.742 2.843 73.784 125 133 128
-79.527 2.840 73.918 122 132 138
-78.263 2.836 74.141 128 143 147
-77.095 2.834 74.199 138 151 170
-76.052 2.838 74.038 135 160 188
-75.061 2.843 73.775 149 174 220
-74.051 2.848 73.541 164 200 244
-72.989 2.851 73.395 171 214 255
-71.882 2.852 73.332 182 212 255
-70.772 2.854 73.272 187 216 255
-69.949 2.867 72.646 191 229 255
-69.899 2.912 70.453 194 233 255
-71.661 3.036 64.498 196 237 255
-76.502 3.298 51.970 196 240 255
-84.089 3.688 33.221 197 247 255
-90.186 4.026 16.993 200 255 255
-88.872 4.040 16.347 202 247 255
-80.199 3.713 32.031 200 248 255
-70.540 3.327 50.537 199 246 255
-64.252 3.089 61.976 198 233 255
-61.137 2.997 66.398 193 228 255
-59.536 2.977 67.364 192 223 255
-58.154 2.967 67.833 178 213 255
-56.496 2.943 69.009 168 195 255
-54.687 2.909 70.623 156 197 236
-53.189 2.891 71.495 149 186 212
-52.258 2.903 70.895 152 164 192
-51.589 2.931 69.553 144 150 182
-50.667 2.946 68.854 128 145 178
-49.318 2.936 69.342 127 151 184
-47.784 2.914 70.395 128 151 180
-46.305 2.894 71.334 127 148 177
-44.977 2.883 71.860 129 146 179
-43.860 2.886 71.744 138 159 184
-43.017 2.907 70.735 131 169 204
-42.353 2.941 69.075 147 175 239
-41.676 2.977 67.362 153 191 255
-40.921 3.009 65.823 160 200 255
-40.261 3.050 63.847 174 215 255
-40.106 3.133 59.853 182 217 255
-41.077 3.313 51.243 178 224 255
-43.785 3.649 35.109 183 224 255
-47.730 4.115 12.748 188 221 255
-50.468 4.506 -6.040 182 222 255
-49.594 4.592 -10.167 175 220 255
-45.449 4.370 0.486 178 220 255
-40.157 4.016 17.495 174 214 255
-35.397 3.687 33.267 169 211 255
-31.667 3.442 45.029 163 203 255
-28.735 3.265 53.516 158 194 255
-26.314 3.133 59.883 148 182 255
-24.299 3.037 64.459 138 165 235
-22.624 2.977 67.362 125 155 208
-21.184 2.942 69.026 120 138 182
-19.879 2.923 69.929 111 127 153
-18.646 2.913 70.406 98 117 129
-17.448 2.908 70.666 98 109 126
-16.264 2.904 70.847 104 110 117
-15.084 2.901 71.014 106 109 117
-13.911 2.898 71.142 96 108 108
-12.750 2.898 71.154 103 107 111
-11.602 2.901 71.022 106 109 115
-10.457 2.905 70.826 101 106 106
-9.304 2.908 70.683 101 105 108
-8.145 2.909 70.614 100 104 105
-6.985 2.910 70.546 100 102 108
-5.825 2.912 70.461 93 102 104
-4.660 2.912 70.460 93 97 100
-3.490 2.908 70.664 83 90 92
-2.324 2.904 70.836 88 93 91
-1.167 2.918 70.177 84 86 86
0.000 2.986 66.937 83 85 89
1.260 3.149 59.103 81 86 86
2.724 3.405 46.833 81 83 84
4.372 3.643 35.383 81 86 84
5.937 3.710 32.153 78 82 83
7.117 3.558 39.450 76 83 83
7.857 3.274 53.119 81 83 84
8.332 2.976 67.420 89 91 92
8.770 2.741 78.697 91 93 95
9.334 2.593 85.794 89 90 94
10.085 2.521 89.231 96 100 104
10.989 2.498 90.367 105 107 109
11.974 2.495 90.511 106 107 116
12.978 2.496 90.452 110 112 113
13.969 2.494 90.516 111 119 123
14.943 2.490 90.710 114 116 120
15.915 2.487 90.884 118 121 117
16.901 2.485 90.952 120 123 122
17.896 2.486 90.945 121 121 121
18.900 2.487 90.880 112 119 121
19.939 2.492 90.618 114 113 116
21.066 2.508 89.871 109 109 109
22.379 2.543 88.182 108 108 106
23.982 2.607 85.129 103 103 103
25.912 2.699 80.693 99 104 102
28.038 2.804 75.669 101 107 100
30.151 2.899 71.091 98 99 94
32.182 2.980 67.218 96 100 89
34.150 3.049 63.894 95 95 93
35.958 3.100 61.460 96 99 93
37.338 3.111 60.898 95 96 91
38.058 3.069 62.930 96 97 90
38.152 2.981 67.181 93 96 93
37.851 2.868 72.610 100 100 96
37.448 2.753 78.082 98 99 94
37.181 2.656 82.772 98 104 95
37.168 2.581 86.356 98 97 88
37.414 2.528 88.908 104 106 105
37.888 2.493 90.605 100 100 98
38.554 2.471 91.624 110 111 106
39.377 2.461 92.118 112 110 108
40.321 2.459 92.238 104 106 94
41.348 2.461 92.112 109 109 100
42.421 2.466 91.867 114 108 99
43.486 2.471 91.652 112 110 95
44.502 2.472 91.578 114 113 93
45.454 2.470 91.675 111 109 94
46.366 2.466 91.869 107 107 91
47.277 2.462 92.056 107 106 88
48.268 2.463 92.042 102 104 79
49.518 2.476 91.407 94 97 78
51.420 2.521 89.262 91 90 68
54.568 2.623 84.325 85 84 62
59.585 2.811 75.340 80 76 59
66.697 3.088 62.033 75 73 46
75.295 3.423 45.969 70 73 40
84.052 3.752 30.138 67 67 37
91.938 4.032 16.696 62 58 23
98.594 4.250 6.263 63 59 26
103.744 4.396 -0.754 57 56 20
106.796 4.450 -3.342 52 56 18
106.716 4.374 0.318 60 60 30
102.673 4.140 11.528 63 63 36
95.516 3.790 28.315 65 66 45
87.840 3.431 45.549 70 69 49
82.001 3.154 58.864 76 73 54
78.796 2.985 66.985 81 80 57
77.741 2.901 71.012 84 83 63
77.915 2.865 72.752 91 91 66
78.590 2.847 73.571 95 93 77
79.429 2.837 74.085 98 96 79
80.365 2.830 74.421 104 104 86
81.400 2.826 74.584 105 105 89
82.517 2.826 74.605 106 105 87
83.682 2.827 74.550 112 112 98
84.872 2.829 74.455 119 120 99
86.084 2.832 74.329 118 123 103
87.315 2.835 74.175 119 120 97
88.538 2.838 74.038 123 125 102
89.693 2.838 74.007 122 125 106
90.744 2.836 74.134 121 125 117
91.743 2.832 74.334 121 121 109
92.817 2.830 74.420 121 128 110
94.052 2.833 74.271 119 125 112
95.424 2.840 73.930 122 121 112
96.828 2.848 73.552 120 125 110
98.170 2.854 73.269 120 123 118
99.406 2.856 73.139 123 123 110
100.542 2.856 73.147 121 123 110
101.604 2.854 73.255 120 124 114
102.612 2.850 73.434 120 124 116
103.591 2.846 73.647 121 125 115
104.595 2.842 73.822 119 117 111
105.673 2.841 73.898 121 120 111
106.826 2.841 73.876 120 119 108
108.018 2.843 73.807 118 117 108
109.221 2.844 73.724 113 111 107
110.411 2.846 73.659 118 119 112
111.551 2.846 73.658 118 120 110
112.622 2.844 73.739 118 119 112
113.681 2.842 73.833 115 119 111
114.843 2.843 73.803 115 122 108
116.209 2.848 73.534 112 113 110
117.767 2.858 73.046 114 118 112
119.391 2.870 72.492 115 116 109
120.908 2.879 72.070 110 112 111
122.213 2.882 71.896 109 114 110
123.313 2.881 71.955 112 117 113
124.292 2.877 72.148 110 112 111
125.246 2.873 72.365 109 116 114
126.251 2.869 72.521 110 117 115
127.355 2.868 72.569 110 116 112
128.589 2.870 72.476 109 114 114
129.993 2.876 72.204 108 111 112
131.560 2.885 71.766 106 109 108
133.173 2.895 71.287 105 105 107
134.643 2.902 70.965 108 113 109
135.871 2.903 70.896 109 114 112
136.921 2.901 71.008 111 113 112
137.920 2.897 71.172 108 112 115
-135.880 1.698 74.370 124 124 92
-134.686 1.698 74.433 126 123 83
-133.474 1.697 74.514 132 128 93
-132.250 1.696 74.609 130 129 91
-131.013 1.694 74.719 132 125 89
-129.764 1.693 74.844 132 133 96
-128.531 1.691 74.954 130 135 92
-127.353 1.691 75.008 131 131 92
-126.235 1.691 74.998 128 132 92
-125.138 1.691 74.966 129 129 88
-124.031 1.691 74.944 130 136 100
-122.907 1.691 74.940 132 133 96
-121.755 1.691 74.966 130 126 96
-120.557 1.690 75.045 126 129 96
-119.326 1.689 75.164 134 130 97
-118.110 1.687 75.267 133 135 98
-116.964 1.687 75.292 130 136 98
-115.893 1.688 75.229 133 133 96
-114.886 1.690 75.090 134 136 97
-113.923 1.692 74.896 133 136 101
-112.945 1.694 74.716 125 125 95
-111.857 1.695 74.666 133 134 100
-110.605 1.693 74.816 128 127 91
-109.252 1.689 75.093 133 133 94
-107.919 1.686 75.351 135 131 98
-106.685 1.684 75.490 128 124 93
-105.553 1.684 75.501 129 133 97
-104.480 1.685 75.438 127 129 90
-103.406 1.686 75.373 129 126 91
-102.300 1.686 75.348 127 123 90
-101.153 1.686 75.379 128 129 95
-99.980 1.685 75.446 126 130 90
-98.807 1.684 75.513 126 128 98
-97.676 1.684 75.525 128 124 93
-96.602 1.685 75.457 122 127 95
-95.549 1.686 75.358 127 128 98
-94.441 1.686 75.335 126 126 97
-93.239 1.685 75.447 120 122 96
-91.976 1.682 75.651 126 126 99
-90.720 1.680 75.850 126 128 98
-89.502 1.678 75.997 118 124 99
-88.305 1.677 76.116 121 116 91
-87.118 1.675 76.222 115 118 97
-85.963 1.675 76.281 122 123 104
-84.882 1.675 76.226 120 120 104
-83.894 1.678 76.019 122 126 120
-82.990 1.682 75.672 124 126 125
-82.130 1.688 75.242 122 128 128
-81.255 1.693 74.825 124 125 120
-80.318 1.697 74.501 124 124 122
-79.311 1.700 74.289 119 127 122
-78.268 1.701 74.132 124 129 130
-77.252 1.704 73.923 135 145 153
-76.271 1.708 73.646 140 159 170
-75.271 1.711 73.394 149 174 202
-74.210 1.713 73.248 158 187 234
-73.094 1.713 73.199 167 196 254
-71.949 1.713 73.205 180 209 255
-70.810 1.713 73.199 189 219 255
-69.962 1.720 72.621 192 225 255
-69.895 1.747 70.461 190 225 255
-71.715 1.823 64.389 192 230 255
-76.910 1.989 51.126 197 235 255
-85.513 2.250 30.222 194 236 255
-76.793 2.057 45.693 191 234 255
-76.101 2.075 44.212 198 242 255
-87.209 2.422 16.452 198 251 255
-75.530 2.138 39.239 199 239 255
-66.773 1.926 56.159 193 233 255
-62.145 1.828 64.027 191 223 255
-59.844 1.795 66.625 180 221 255
-58.187 1.781 67.752 178 219 255
-56.452 1.764 69.119 163 194 254
-54.656 1.744 70.702 153 185 224
-53.203 1.735 71.460 153 176 202
-52.312 1.744 70.752 152 160 184
-51.635 1.760 69.426 135 140 177
-50.634 1.766 68.945 132 133 167
-49.186 1.757 69.718 129 143 166
-47.590 1.741 70.961 126 138 161
-46.114 1.729 71.908 119 142 168
-44.870 1.726 72.190 126 154 177
-43.902 1.733 71.613 127 169 203
-43.167 1.750 70.250 146 183 234
-42.465 1.769 68.701 155 186 255
-41.676 1.786 67.362 161 203 255
-40.946 1.806 65.735 175 215 255
-40.643 1.847 62.457 179 217 255
-41.285 1.935 55.430 178 223 255
-43.381 2.099 42.324 176 224 255
-46.897 2.345 22.661 183 226 255
-50.351 2.604 1.901 182 221 255
-51.180 2.742 -9.094 181 221 255
-48.372 2.687 -4.738 180 220 255
-43.503 2.510 9.467 175 222 255
-38.687 2.321 24.550 179 213 255
-34.841 2.178 36.047 172 206 255
-31.723 2.069 44.739 159 194 255
-28.867 1.968 52.796 158 180 255
-26.236 1.874 60.329 142 171 243
-24.048 1.804 65.961 136 163 220
-22.356 1.765 69.054 124 145 197
-20.993 1.749 70.297 116 134 176
-19.773 1.745 70.676 105 122 144
-18.595 1.743 70.790 100 117 123
-17.421 1.742 70.880 103 107 115
-16.244 1.740 71.012 101 110 114
-15.066 1.738 71.175 101 110 114
-13.895 1.737 71.302 98 105 107
-12.736 1.737 71.311 98 107 106
-11.590 1.738 71.174 99 106 110
-10.446 1.741 70.966 105 107 111
-9.297 1.743 70.800 99 103 104
-8.139 1.744 70.728 98 102 103
-6.977 1.744 70.719 96 103 103
-5.812 1.744 70.758 95 100 100
-4.647 1.743 70.849 88 90 89
-3.484 1.742 70.902 88 89 93
-2.330 1.748 70.445 78 82 83
-1.182 1.772 68.453 80 85 83
0.000 1.839 63.104 81 86 84
1.310 1.966 52.993 74 80 75
2.838 2.128 39.981 79 81 83
4.483 2.242 30.911 77 79 79
5.923 2.221 32.547 81 81 81
6.902 2.071 44.602 79 79 79
7.490 1.872 60.460 85 88 87
7.950 1.704 73.964 84 84 86
8.488 1.592 82.926 94 99 97
9.180 1.530 87.848 92 101 100
10.018 1.503 90.036 99 106 106
10.955 1.494 90.740 105 105 105
11.941 1.493 90.845 111 110 115
12.935 1.493 90.848 112 116 119
13.919 1.491 90.948 114 118 121
14.891 1.489 91.123 118 120 121
15.868 1.488 91.239 111 113 114
16.860 1.488 91.241 118 119 123
17.863 1.489 91.161 113 115 117
18.893 1.492 90.927 107 109 111
20.021 1.502 90.123 111 111 111
21.394 1.528 87.998 103 103 101
23.227 1.584 83.559 101 106 106
25.708 1.677 76.123 98 102 101
28.792 1.799 66.291 98 101 98
32.070 1.924 56.313 92 95 92
35.143 2.027 48.052 93 97 91
38.032 2.113 41.219 87 88 79
40.908 2.191 34.932 90 93 85
43.634 2.257 29.697 84 88 80
45.682 2.284 27.520 89 91 81
46.547 2.252 30.068 89 93 82
46.232 2.167 36.879 94 95 86
45.084 2.049 46.307 91 95 87
43.514 1.920 56.671 90 91 86
41.864 1.794 66.718 94 94 92
40.419 1.684 75.519 96 98 95
39.401 1.597 82.463 95 97 94
38.931 1.537 87.311 95 96 89
39.004 1.500 90.237 102 104 94
39.520 1.482 91.689 105 107 99
40.338 1.476 92.188 105 107 95
41.328 1.476 92.170 108 109 92
42.393 1.479 91.943 111 111 93
43.458 1.482 91.729 112 112 94
44.476 1.483 91.647 112 108 103
45.435 1.482 91.725 112 113 92
46.347 1.479 91.917 110 106 91
47.238 1.476 92.155 107 109 85
48.156 1.474 92.317 102 106 82
49.192 1.476 92.190 100 104 75
50.530 1.486 91.357 95 97 74
52.489 1.514 89.121 90 91 68
55.515 1.571 84.555 84 85 62
60.058 1.668 76.787 81 81 53
66.230 1.806 65.747 75 74 49
73.633 1.972 52.465 66 65 38
81.796 2.153 38.048 62 62 33
90.398 2.338 23.220 57 59 22
98.856 2.513 9.186 56 60 22
106.176 2.654 -2.102 56 57 25
110.773 2.724 -7.664 53 56 26
110.790 2.680 -4.183 62 60 31
105.668 2.516 8.979 63 62 40
97.385 2.282 27.654 65 69 42
89.292 2.061 45.403 70 69 47
83.724 1.903 58.024 71 72 51
80.916 1.812 65.326 79 75 56
79.897 1.762 69.255 85 84 62
79.740 1.733 71.572 90 89 69
79.998 1.714 73.111 89 91 77
80.561 1.702 74.090 98 96 83
81.385 1.696 74.608 100 98 85
82.392 1.693 74.811 103 101 83
83.491 1.692 74.859 108 109 90
84.630 1.693 74.842 111 109 94
85.800 1.693 74.776 112 115 98
86.998 1.695 74.669 115 115 101
88.197 1.696 74.562 119 119 105
89.347 1.696 74.532 122 124 108
90.421 1.695 74.619 121 123 108
91.466 1.694 74.745 120 125 110
92.595 1.694 74.744 122 127 112
93.882 1.697 74.517 125 128 113
95.299 1.702 74.109 121 125 115
96.744 1.707 73.670 122 121 115
98.118 1.711 73.341 123 125 113
99.364 1.713 73.196 122 121 117
100.492 1.713 73.215 120 126 115
101.557 1.712 73.320 118 116 110
102.596 1.710 73.456 119 115 112
103.620 1.708 73.608 118 120 108
104.651 1.706 73.749 123 125 111
105.715 1.705 73.844 125 122 112
106.823 1.705 73.881 122 122 110
107.957 1.705 73.883 115 114 110
109.116 1.705 73.855 114 118 108
110.289 1.705 73.810 118 119 114
111.433 1.706 73.801 111 114 106
112.508 1.705 73.876 116 117 112
113.555 1.703 73.984 113 117 109
114.700 1.703 73.972 117 118 113
116.064 1.707 73.704 111 114 108
117.640 1.713 73.193 110 113 105
119.283 1.720 72.616 109 114 110
120.794 1.726 72.199 110 112 111
122.050 1.727 72.080 112 114 114
123.061 1.725 72.238 110 112 113
123.951 1.722 72.526 114 113 116
124.868 1.718 72.781 107 110 109
125.903 1.717 72.901 106 114 111
127.071 1.717 72.876 108 111 108
128.369 1.719 72.712 104 113 112
129.819 1.723 72.390 107 110 109
131.408 1.729 71.926 106 110 111
133.024 1.735 71.442 105 107 107
134.497 1.739 71.115 106 113 113
135.751 1.740 71.018 104 111 111
136.848 1.740 71.083 106 111 109
137.892 1.738 71.200 104 111 111
-135.763 0.566 74.487 131 133 91
-134.572 0.565 74.547 129 127 85
-133.363 0.565 74.627 128 126 85
-132.140 0.565 74.722 133 126 99
-130.914 0.564 74.821 137 131 94
-129.692 0.564 74.919 128 126 93
-128.482 0.564 75.006 132 133 89
-127.296 0.563 75.068 129 126 91
-126.136 0.563 75.104 129 127 96
-124.993 0.563 75.122 131 131 99
-123.866 0.563 75.123 132 134 94
-122.754 0.563 75.108 132 134 92
-121.623 0.563 75.113 132 125 98
-120.428 0.563 75.190 135 132 94
-119.162 0.562 75.349 133 133 96
-117.889 0.561 75.520 135 134 94
-116.700 0.561 75.597 134 130 97
-115.631 0.561 75.535 135 134 98
-114.665 0.562 75.350 131 131 92
-113.758 0.563 75.092 129 133 93
-112.837 0.564 74.845 132 127 86
-111.797 0.565 74.739 131 131 90
-110.573 0.564 74.855 135 132 96
-109.218 0.563 75.135 133 130 90
-107.860 0.562 75.425 128 126 93
-106.593 0.561 75.606 131 132 95
-105.436 0.561 75.651 133 130 90
-104.354 0.561 75.600 130 127 92
-103.295 0.561 75.518 128 125 87
-102.223 0.562 75.451 122 128 89
-101.111 0.562 75.435 125 127 85
-99.950 0.562 75.485 125 131 97
-98.749 0.561 75.593 129 127 98
-97.540 0.561 75.712 127 124 98
-96.355 0.560 75.801 126 128 102
-95.197 0.560 75.854 119 120 97
-94.040 0.560 75.907 126 126 97
-92.864 0.559 75.989 128 132 94
-91.675 0.559 76.092 125 125 98
-90.498 0.559 76.179 124 128 95
-89.346 0.558 76.231 122 126 102
-88.200 0.558 76.276 121 116 102
-87.051 0.558 76.326 122 123 104
-85.918 0.558 76.351 120 126 104
-84.837 0.558 76.296 121 124 100
-83.819 0.559 76.140 118 119 98
-82.848 0.560 75.902 120 119 108
-81.902 0.561 75.616 121 126 120
-80.969 0.562 75.301 126 124 118
-80.053 0.564 74.949 122 130 118
-79.158 0.565 74.551 128 131 130
-78.290 0.567 74.093 132 132 134
-77.445 0.569 73.582 135 134 137
-76.574 0.571 73.103 137 142 150
-75.598 0.573 72.798 135 162 176
-74.501 0.573 72.710 149 179 214
-73.333 0.573 72.751 166 195 242
-72.149 0.573 72.824 178 202 255
-70.982 0.572 72.865 180 217 255
-70.078 0.574 72.392 181 217 255
-69.882 0.582 70.487 186 222 255
-71.383 0.605 65.065 186 217 255
-75.934 0.655 53.144 188 229 255
-83.825 0.735 33.777 191 229 255
-92.437 0.825 12.171 188 230 255
-76.779 0.698 42.731 196 237 255
-75.529 0.699 42.408 201 242 255
-80.785 0.762 27.340 201 240 255
-70.224 0.675 48.196 198 234 255
-63.785 0.625 60.167 191 227 255
-60.350 0.604 65.409 180 215 255
-58.129 0.593 67.893 178 212 255
-56.247 0.586 69.631 167 205 255
-54.576 0.581 70.908 165 190 248
-53.337 0.580 71.111 155 180 226
-52.607 0.585 69.966 150 174 209
-51.993 0.591 68.451 143 155 194
-50.977 0.593 67.987 137 144 182
-49.475 0.589 68.892 124 141 162
-47.785 0.583 70.391 126 154 177
-46.192 0.577 71.673 129 161 187
-44.875 0.575 72.174 134 173 212
-43.936 0.578 71.504 144 190 241
-43.305 0.585 69.800 156 196 255
-42.698 0.593 67.925 163 207 255
-42.025 0.600 66.166 173 215 255
-41.586 0.612 63.475 178 223 255
-41.904 0.635 57.873 182 227 255
-43.544 0.680 46.959 178 227 255
-46.641 0.752 29.704 184 224 255
-50.160 0.836 9.611 185 223 255
-51.938 0.895 -4.665 177 220 255
-50.329 0.899 -5.446 176 216 255
-45.980 0.851 5.894 173 218 255
-41.023 0.789 20.914 183 218 255
-37.033 0.741 32.490 173 209 255
-34.129 0.711 39.603 164 204 255
-31.572 0.686 45.527 154 195 255
-28.863 0.656 52.817 149 184 255
-26.193 0.624 60.578 140 173 237
-23.955 0.599 66.520 127 152 207
-22.260 0.586 69.664 118 142 180
-20.928 0.581 70.729 113 130 163
-19.744 0.581 70.882 105 123 140
-18.587 0.581 70.847 95 113 116
-17.419 0.581 70.898 98 107 108
-16.239 0.580 71.056 101 106 114
-15.058 0.579 71.255 103 107 111
-13.885 0.579 71.399 99 106 110
-12.727 0.579 71.409 99 106 108
-11.582 0.579 71.269 100 111 110
-10.439 0.580 71.063 103 107 111
-9.290 0.581 70.902 100 102 106
-8.132 0.581 70.844 96 101 102
-6.970 0.581 70.841 93 95 97
-5.809 0.581 70.842 91 93 97
-4.652 0.581 70.701 83 90 90
-3.504 0.584 70.085 83 90 90
-2.365 0.591 68.353 77 84 84
-1.214 0.607 64.561 79 82 81
0.000 0.637 57.479 74 79 80
1.361 0.681 46.879 76 79 75
2.911 0.728 35.582 76 78 77
4.502 0.750 30.163 81 81 79
5.797 0.725 36.336 84 85 82
6.593 0.659 52.013 86 86 84
7.085 0.590 68.548 82 84 83
7.590 0.542 80.137 88 90 91
8.248 0.516 86.529 88 93 93
9.055 0.503 89.523 96 100 104
9.960 0.498 90.729 104 105 109
10.917 0.496 91.156 107 110 107
11.895 0.496 91.300 109 109 111
12.878 0.495 91.379 110 114 118
13.857 0.495 91.477 110 116 119
14.834 0.494 91.579 117 118 122
15.819 0.494 91.607 110 109 114
16.820 0.495 91.521 107 109 111
17.847 0.496 91.270 109 114 114
18.952 0.499 90.550 107 110 109
20.293 0.507 88.493 102 102 102
22.142 0.527 83.726 100 103 102
24.827 0.564 74.829 97 97 97
28.498 0.620 61.566 91 94 89
32.787 0.683 46.313 84 84 84
36.930 0.739 32.986 81 86 82
40.516 0.779 23.254 82 83 80
43.806 0.811 15.558 82 83 80
47.136 0.842 8.237 82 85 77
50.382 0.869 1.773 80 81 74
52.950 0.882 -1.548 77 83 74
54.262 0.875 0.204 77 79 69
54.283 0.848 6.690 81 84 76
53.254 0.807 16.598 78 84 73
51.395 0.756 28.856 82 85 79
48.873 0.698 42.685 83 84 79
46.047 0.640 56.760 85 83 79
43.435 0.587 69.381 87 88 83
41.490 0.546 79.228 94 93 89
40.442 0.518 85.814 89 93 80
40.248 0.503 89.505 90 93 85
40.683 0.496 91.177 99 103 95
41.484 0.494 91.723 104 104 86
42.454 0.494 91.774 105 101 96
43.465 0.494 91.709 109 103 98
44.457 0.494 91.698 106 105 96
45.407 0.494 91.797 111 109 92
46.316 0.493 91.996 112 114 88
47.200 0.492 92.250 110 108 92
48.099 0.491 92.457 105 106 85
49.065 0.491 92.494 105 104 84
50.164 0.492 92.216 97 101 77
51.520 0.495 91.357 95 97 74
53.355 0.503 89.447 93 90 66
56.025 0.519 85.750 85 84 64
59.873 0.544 79.619 79 83 56
65.111 0.581 70.727 76 76 49
71.890 0.631 58.902 73 70 44
80.230 0.692 44.257 66 66 34
89.786 0.761 27.635 61 56 26
99.814 0.832 10.621 55 58 23
108.698 0.891 -3.583 53 53 23
113.859 0.918 -10.123 55 58 25
113.352 0.900 -5.658 54 53 29
107.656 0.841 8.395 65 62 38
99.564 0.766 26.439 59 60 44
92.321 0.699 42.394 69 65 53
87.373 0.652 53.761 72 73 54
84.348 0.620 61.400 71 69 56
82.508 0.598 66.758 83 83 65
81.490 0.582 70.553 83 83 65
81.207 0.572 72.999 85 86 67
81.553 0.566 74.329 95 95 84
82.337 0.564 74.901 98 99 78
83.345 0.563 75.095 98 96 83
84.439 0.563 75.147 107 108 89
85.571 0.563 75.138 107 109 92
86.727 0.563 75.091 111 108 96
87.888 0.563 75.038 113 118 105
89.019 0.563 75.032 117 112 102
90.113 0.563 75.080 119 118 107
91.216 0.563 75.115 121 121 107
92.412 0.563 75.012 119 119 105
93.745 0.565 74.715 122 125 106
95.185 0.567 74.272 118 117 106
96.642 0.568 73.814 120 123 118
98.021 0.570 73.476 121 125 117
99.256 0.570 73.345 121 126 113
100.361 0.570 73.395 122 121 117
101.418 0.570 73.507 118 116 112
102.490 0.569 73.597 119 119 103
103.572 0.569 73.672 116 118 106
104.641 0.569 73.762 122 122 110
105.701 0.568 73.861 115 116 111
106.769 0.568 73.949 117 117 115
107.854 0.568 74.013 117 117 115
108.978 0.568 74.028 117 119 109
110.142 0.568 73.992 116 117 112
111.304 0.568 73.959 114 114 112
112.407 0.568 73.999 109 110 105
113.468 0.567 74.088 116 115 111
114.601 0.567 74.090 115 118 115
115.937 0.568 73.854 117 117 115
117.492 0.570 73.367 114 114 114
119.137 0.573 72.784 113 118 112
120.668 0.575 72.344 113 116 115
121.930 0.575 72.216 110 115 114
122.914 0.574 72.403 107 112 108
123.755 0.573 72.745 112 114 114
124.630 0.572 73.043 112 114 114
125.652 0.571 73.176 103 108 107
126.827 0.571 73.140 107 112 108
128.142 0.572 72.955 111 113 112
129.609 0.573 72.612 105 108 105
131.205 0.575 72.139 107 111 112
132.814 0.577 71.662 107 111 112
134.285 0.579 71.335 109 113 118
135.567 0.579 71.207 98 105 105
136.718 0.579 71.215 105 112 114
137.819 0.579 71.273 102 115 115
-135.582 -0.565 74.668 128 126 85
-134.425 -0.565 74.696 132 129 87
-133.248 -0.565 74.744 129 124 99
-132.053 -0.564 74.812 128 127 89
-130.853 -0.564 74.885 129 126 89
-129.655 -0.564 74.958 134 131 95
-128.451 -0.563 75.038 133 130 90
-127.235 -0.563 75.133 132 128 93
-126.017 -0.563 75.232 133 128 91
-124.823 -0.562 75.306 131 131 90
-123.680 -0.562 75.327 128 133 97
-122.586 -0.562 75.293 128 131 87
-121.492 -0.562 75.259 135 132 94
-120.328 -0.562 75.303 133 135 94
-119.067 -0.562 75.457 132 131 97
-117.772 -0.561 75.654 132 129 89
-116.552 -0.560 75.767 135 140 93
-115.465 -0.561 75.727 133 131 86
-114.494 -0.561 75.552 133 133 94
-113.576 -0.562 75.308 130 130 89
-112.634 -0.563 75.089 130 131 85
-111.581 -0.564 75.000 131 133 89
-110.371 -0.563 75.102 133 130 92
-109.049 -0.562 75.344 132 130 85
-107.722 -0.561 75.598 132 125 98
-106.470 -0.560 75.762 134 131 91
-105.311 -0.560 75.811 129 129 88
-104.221 -0.560 75.772 126 129 92
-103.167 -0.561 75.684 130 131 92
-102.126 -0.561 75.578 124 124 92
-101.056 -0.561 75.509 127 129 90
-99.913 -0.561 75.536 123 128 97
-98.681 -0.561 75.685 127 129 90
-97.397 -0.560 75.910 124 125 88
-96.110 -0.559 76.143 130 126 98
-94.858 -0.558 76.333 124 126 101
-93.652 -0.557 76.462 123 126 98
-92.493 -0.557 76.525 125 126 93
-91.374 -0.557 76.532 124 124 94
-90.287 -0.557 76.492 121 121 98
-89.213 -0.558 76.431 123 125 100
-88.123 -0.558 76.393 121 124 100
-87.006 -0.558 76.394 123 122 99
-85.890 -0.558 76.396 123 127 103
-84.817 -0.558 76.329 123 126 105
-83.798 -0.559 76.173 121 120 102
-82.808 -0.560 75.966 124 125 107
-81.815 -0.560 75.759 120 124 112
-80.830 -0.561 75.533 128 130 117
-79.899 -0.563 75.210 122 128 121
-79.070 -0.565 74.701 136 137 130
-78.368 -0.568 73.957 137 134 138
-77.732 -0.572 73.075 131 126 130
-77.015 -0.575 72.314 137 143 148
-76.073 -0.576 71.935 125 157 155
-74.912 -0.576 71.950 136 169 190
-73.653 -0.575 72.151 162 184 229
-72.393 -0.575 72.359 169 187 233
-71.174 -0.574 72.493 171 202 255
-70.177 -0.575 72.196 180 212 255
-69.742 -0.581 70.766 176 215 255
-70.609 -0.598 66.638 183 220 255
-73.810 -0.636 57.540 189 226 255
-79.817 -0.700 42.213 193 224 255
-87.332 -0.780 23.110 191 221 255
-93.005 -0.846 7.330 190 224 255
-76.316 -0.707 40.659 198 244 255
-84.895 -0.801 18.035 195 235 255
-74.555 -0.717 38.200 190 228 255
-66.656 -0.653 53.412 189 228 255
-61.748 -0.617 62.055 188 227 255
-58.567 -0.598 66.820 181 224 255
-56.289 -0.586 69.527 181 218 255
-54.634 -0.581 70.759 173 203 255
-53.569 -0.582 70.504 165 198 255
-52.975 -0.589 68.984 154 191 242
-52.434 -0.596 67.247 146 174 226
-51.477 -0.599 66.594 135 166 215
-49.997 -0.595 67.401 135 163 211
-48.232 -0.588 69.082 149 171 214
-46.477 -0.581 70.820 154 186 230
-45.003 -0.577 71.779 148 198 254
-44.025 -0.579 71.224 155 208 255
-43.543 -0.588 69.030 170 211 255
-43.265 -0.601 66.033 173 218 255
-43.088 -0.616 62.519 186 226 255
-43.323 -0.637 57.347 186 229 255
-44.467 -0.674 48.552 185 222 255
-46.907 -0.733 34.350 177 224 255
-50.123 -0.808 16.225 180 225 255
-52.276 -0.871 1.145 177 219 255
-51.556 -0.889 -3.083 178 221 255
-47.860 -0.855 5.134 180 218 255
-42.835 -0.793 19.874 180 218 255
-38.349 -0.737 33.254 175 213 255
-35.239 -0.705 41.101 172 209 255
-33.089 -0.689 44.803 162 205 255
-31.002 -0.674 48.502 155 192 255
-28.560 -0.649 54.468 146 179 245
-26.053 -0.620 61.377 137 161 226
-23.904 -0.598 66.826 123 147 193
-22.245 -0.585 69.758 120 128 164
-20.928 -0.581 70.730 110 120 144
-19.751 -0.581 70.830 89 106 116
-18.595 -0.581 70.786 92 108 109
-17.422 -0.581 70.877 101 104 112
-16.235 -0.580 71.091 102 106 111
-15.050 -0.579 71.324 106 110 111
-13.878 -0.578 71.469 101 106 106
-12.723 -0.578 71.459 107 111 112
-11.579 -0.579 71.307 103 110 110
-10.435 -0.580 71.121 100 102 104
-9.282 -0.580 71.018 98 100 104
-8.122 -0.580 71.021 95 100 100
-6.964 -0.580 70.966 92 94 96
-5.818 -0.582 70.619 84 92 89
-4.690 -0.586 69.541 79 84 82
-3.577 -0.596 67.178 79 84 82
-2.453 -0.613 63.093 71 76 74
-1.275 -0.638 57.209 76 79 71
0.000 -0.669 49.580 71 74 69
1.410 -0.705 41.006 68 71 65
2.936 -0.734 34.099 74 77 71
4.408 -0.735 33.924 80 81 74
5.526 -0.691 44.476 76 77 72
6.184 -0.618 61.839 86 86 84
6.677 -0.556 76.718 84 87 84
7.289 -0.521 85.293 89 89 89
8.069 -0.504 89.219 92 94 96
8.961 -0.498 90.769 94 99 99
9.908 -0.495 91.354 103 110 110
10.872 -0.494 91.650 106 108 110
11.839 -0.493 91.861 115 115 115
12.812 -0.493 91.990 113 116 115
13.791 -0.493 92.039 115 117 119
14.778 -0.493 92.029 113 115 119
15.776 -0.493 91.934 114 116 118
16.799 -0.494 91.666 107 110 107
17.894 -0.497 90.954 107 107 105
19.183 -0.505 89.092 105 105 105
20.928 -0.523 84.679 92 97 93
23.496 -0.559 75.989 96 98 97
27.156 -0.617 62.129 88 88 90
31.728 -0.690 44.714 82 88 82
36.439 -0.759 28.053 84 86 86
40.497 -0.810 15.866 79 79 75
43.783 -0.842 8.173 71 74 73
46.787 -0.866 2.308 70 72 72
49.931 -0.892 -3.739 68 70 69
53.137 -0.916 -9.629 72 71 64
55.881 -0.931 -13.276 65 69 61
57.658 -0.930 -12.942 64 67 64
58.454 -0.913 -8.952 64 69 63
58.397 -0.885 -2.101 71 74 71
57.412 -0.844 7.621 74 77 71
55.327 -0.790 20.557 75 78 74
52.328 -0.727 35.822 81 83 80
48.961 -0.662 51.458 82 85 77
45.846 -0.603 65.474 84 85 80
43.495 -0.558 76.420 84 88 78
42.171 -0.527 83.737 93 95 83
41.793 -0.510 87.930 95 96 89
42.072 -0.501 90.044 96 97 90
42.730 -0.497 91.003 99 104 91
43.570 -0.495 91.422 104 103 94
44.478 -0.494 91.643 107 105 94
45.389 -0.493 91.843 105 107 95
46.275 -0.492 92.102 100 106 84
47.133 -0.491 92.417 110 107 85
48.005 -0.490 92.688 108 109 90
48.937 -0.489 92.801 106 107 84
49.954 -0.490 92.711 103 102 77
51.076 -0.491 92.382 96 102 77
52.374 -0.494 91.668 98 97 75
54.046 -0.500 90.147 89 86 66
56.379 -0.513 87.242 87 86 61
59.717 -0.533 82.285 85 82 56
64.494 -0.566 74.474 81 79 50
71.086 -0.613 63.176 71 71 44
79.750 -0.676 48.046 64 67 36
90.541 -0.755 29.167 57 58 24
102.283 -0.838 9.038 59 58 31
111.883 -0.902 -6.297 53 56 28
116.414 -0.924 -11.492 55 59 19
115.378 -0.901 -6.085 56 55 35
110.320 -0.849 6.583 61 55 32
103.734 -0.786 21.643 66 65 40
97.541 -0.728 35.550 69 69 51
92.309 -0.679 47.353 70 71 50
88.011 -0.638 57.188 74 76 55
84.789 -0.606 64.898 81 79 59
82.882 -0.584 70.167 84 82 67
82.257 -0.571 73.155 89 92 73
82.569 -0.566 74.521 95 96 78
83.384 -0.563 75.034 100 99 81
84.391 -0.563 75.224 100 101 80
85.457 -0.562 75.317 106 101 87
86.548 -0.562 75.370 106 103 93
87.649 -0.562 75.405 117 112 100
88.751 -0.562 75.438 111 114 97
