ply
format ascii 1.0
comment PLY generated with DepthInition by Giancarlo Todone
element vertex 1389
property float x
property float y
property float z
property uchar red
property uchar green
property uchar blue
end_header
-108.313 -57.296 7.630 242 255 255
-106.862 -57.360 7.419 228 247 255
-105.431 -57.436 7.168 230 255 255
-104.065 -57.551 6.790 229 255 255
-102.781 -57.715 6.251 224 255 255
-101.533 -57.906 5.625 236 255 255
-100.235 -58.073 5.075 229 255 255
-98.823 -58.178 4.730 227 255 255
-97.277 -58.207 4.635 223 255 255
-95.630 -58.175 4.740 225 255 255
-93.890 -58.084 5.038 229 255 255
-92.079 -57.946 5.493 218 245 255
-90.303 -57.825 5.889 215 250 255
-88.714 -57.822 5.899 220 238 255
-87.361 -57.976 5.394 211 227 255
-86.120 -58.211 4.621 203 218 255
-84.839 -58.427 3.911 194 209 255
-83.470 -58.589 3.378 194 201 255
-82.045 -58.719 2.952 191 196 255
-80.604 -58.841 2.549 178 188 253
-79.164 -58.969 2.129 165 193 243
-77.729 -59.106 1.678 170 195 241
-76.301 -59.255 1.190 174 190 237
-74.872 -59.410 0.681 167 183 228
-73.427 -59.557 0.195 165 170 221
-71.947 -59.684 -0.220 167 183 228
-70.430 -59.783 -0.547 165 180 227
-68.885 -59.864 -0.814 156 181 227
-67.327 -59.938 -1.055 170 190 236
-65.759 -60.005 -1.278 177 191 234
-64.172 -60.059 -1.453 166 191 230
-62.557 -60.087 -1.547 164 182 223
-60.918 -60.094 -1.571 165 183 225
-59.274 -60.097 -1.579 153 170 210
-57.642 -60.112 -1.629 163 174 214
-56.019 -60.138 -1.713 157 172 210
-54.387 -60.155 -1.770 161 169 214
-52.736 -60.152 -1.761 160 173 207
-51.079 -60.141 -1.723 159 171 210
-49.435 -60.146 -1.742 157 175 205
-47.815 -60.181 -1.854 153 171 204
-46.205 -60.231 -2.019 157 174 209
-44.587 -60.274 -2.162 158 165 201
-42.953 -60.300 -2.246 144 173 205
-41.309 -60.311 -2.282 157 167 207
-39.660 -60.317 -2.302 148 173 201
-38.013 -60.325 -2.328 156 165 194
-36.369 -60.340 -2.379 156 164 202
-34.731 -60.366 -2.462 154 169 189
-33.094 -60.396 -2.561 161 168 198
-31.451 -60.419 -2.639 159 165 197
-29.802 -60.431 -2.677 157 161 194
-28.149 -60.438 -2.700 160 159 194
-26.499 -60.451 -2.743 148 166 196
-24.851 -60.472 -2.812 152 160 182
-23.202 -60.491 -2.876 143 156 188
-21.547 -60.497 -2.893 158 165 190
-19.885 -60.483 -2.850 157 163 193
-18.220 -60.458 -2.768 150 156 186
-16.557 -60.433 -2.685 151 159 181
-14.897 -60.416 -2.627 146 161 183
-13.241 -60.411 -2.612 152 161 188
-11.589 -60.427 -2.664 153 162 189
-9.939 -60.465 -2.788 152 161 190
-8.289 -60.511 -2.941 149 163 188
-6.635 -60.547 -3.058 141 164 181
-4.978 -60.563 -3.110 148 165 187
-3.318 -60.561 -3.104 160 162 193
-1.659 -60.550 -3.068 151 159 192
0.000 -60.542 -3.042 151 159 190
1.659 -60.547 -3.060 151 165 181
3.319 -60.565 -3.118 145 159 184
4.979 -60.580 -3.166 144 153 179
6.638 -60.575 -3.152 145 155 177
8.294 -60.547 -3.059 149 156 172
9.946 -60.505 -2.921 142 154 168
11.596 -60.463 -2.783 139 148 163
13.245 -60.430 -2.675 136 144 162
14.896 -60.413 -2.617 132 141 159
16.552 -60.415 -2.626 133 136 160
18.213 -60.436 -2.692 134 135 155
19.876 -60.458 -2.765 133 138 161
21.536 -60.466 -2.793 132 142 164
23.190 -60.459 -2.769 132 143 169
24.839 -60.443 -2.715 131 139 161
26.485 -60.419 -2.637 133 149 166
28.126 -60.388 -2.535 136 151 159
29.767 -60.362 -2.449 137 148 164
31.419 -60.358 -2.438 137 146 159
33.082 -60.375 -2.494 137 148 164
34.745 -60.391 -2.545 134 151 173
36.395 -60.383 -2.519 137 145 167
38.030 -60.352 -2.416 132 141 168
39.658 -60.314 -2.291 137 150 169
41.293 -60.288 -2.208 136 142 163
42.941 -60.283 -2.190 136 144 164
44.597 -60.288 -2.207 132 141 161
46.247 -60.286 -2.200 128 139 158
47.879 -60.261 -2.118 130 138 158
49.489 -60.212 -1.956 128 142 153
51.088 -60.152 -1.758 127 135 151
52.691 -60.101 -1.592 125 134 150
54.307 -60.067 -1.480 120 132 146
55.927 -60.039 -1.390 123 131 151
57.542 -60.009 -1.288 118 136 150
59.152 -59.973 -1.172 116 127 141
60.745 -59.924 -1.011 109 122 141
62.292 -59.833 -0.712 109 118 131
63.760 -59.673 -0.184 109 111 127
65.144 -59.444 0.569 115 117 134
66.471 -59.176 1.449 107 116 129
67.782 -58.906 2.337 106 113 129
69.104 -58.658 3.152 114 123 136
70.452 -58.443 3.859 116 120 137
71.832 -58.264 4.448 119 125 141
73.245 -58.118 4.927 124 128 147
74.686 -58.001 5.312 124 129 141
76.156 -57.911 5.609 121 129 147
77.666 -57.853 5.799 122 129 145
79.210 -57.823 5.896 122 129 143
80.757 -57.797 5.984 128 130 143
82.266 -57.744 6.156 117 126 141
83.720 -57.656 6.446 113 127 129
85.132 -57.543 6.818 113 123 131
86.523 -57.419 7.224 110 116 123
87.911 -57.299 7.619 103 107 113
89.302 -57.185 7.996 105 106 113
90.723 -57.093 8.297 97 99 100
92.203 -57.041 8.468 94 99 97
93.703 -57.003 8.594 98 102 101
95.103 -56.906 8.912 95 97 94
96.370 -56.734 9.478 89 94 93
97.618 -56.557 10.061 84 87 84
99.028 -56.477 10.323 82 87 86
100.651 -56.519 10.183 84 86 86
102.408 -56.635 9.804 78 80 82
104.482 -56.919 8.869 73 77 80
107.460 -57.680 6.366 72 71 78
112.025 -59.259 1.175 75 77 76
117.307 -61.167 -5.098 78 75 78
118.435 -60.886 -4.172 104 83 104
112.848 -57.208 7.920 186 140 185
108.261 -54.131 18.037 255 255 255
107.326 -52.938 21.958 255 255 255
107.788 -52.457 23.539 255 255 255
108.147 -51.939 25.242 255 255 255
108.010 -51.199 27.673 255 255 255
107.858 -50.472 30.065 255 255 255
108.661 -50.204 30.946 255 255 255
111.252 -50.759 29.122 255 255 255
115.590 -52.087 24.756 149 146 138
120.786 -53.765 19.240 118 113 115
125.883 -55.358 14.000 141 136 108
130.423 -56.672 9.681 161 170 160
134.392 -57.709 6.271 142 161 182
138.327 -58.708 2.986 112 112 112
143.243 -60.096 -1.576 159 179 136
131.413 -54.506 16.801 131 137 133
132.322 -54.267 17.588 148 163 126
133.501 -54.142 17.998 105 113 110
134.550 -53.968 18.571 130 131 124
134.713 -53.446 20.288 119 114 118
132.955 -52.181 24.445 172 165 115
136.843 -53.136 21.308 172 172 131
138.103 -53.061 21.554 156 165 124
139.362 -52.986 21.798 161 159 130
140.480 -52.861 22.211 204 233 137
141.581 -52.732 22.636 118 119 116
144.121 -53.136 21.308 141 147 136
144.997 -52.924 22.003 128 146 142
146.414 -52.912 22.042 137 132 122
147.867 -52.913 22.039 135 135 110
149.431 -52.954 21.906 152 177 148
151.400 -53.136 21.308 140 136 135
163.014 -56.667 9.698 147 145 128
169.241 -58.276 4.407 126 127 124
175.305 -59.800 -0.603 134 138 128
181.377 -61.299 -5.530 104 106 105
187.505 -62.788 -10.428 132 133 137
193.655 -64.258 -15.260 144 164 153
197.024 -64.787 -16.999 107 117 114
200.274 -65.268 -18.579 118 120 121
203.392 -65.697 -19.992 164 155 117
206.364 -66.073 -21.226 159 177 137
209.172 -66.389 -22.266 147 144 125
211.689 -66.609 -22.988 144 142 124
214.094 -66.790 -23.584 142 140 125
216.378 -66.931 -24.045 180 188 108
218.469 -67.009 -24.305 133 141 116
-179.533 -56.104 16.467 100 119 142
-178.066 -56.113 16.438 106 122 151
-176.627 -56.131 16.380 105 122 153
-175.284 -56.181 16.222 109 124 153
-174.058 -56.269 15.940 104 120 146
-172.865 -56.369 15.619 108 122 147
-171.608 -56.450 15.360 110 127 148
-170.311 -56.519 15.139 105 122 144
-169.093 -56.616 14.829 110 131 158
-168.006 -56.759 14.372 114 123 156
-166.954 -56.916 13.869 115 140 159
-165.800 -57.041 13.468 115 133 165
-164.513 -57.122 13.208 113 136 160
-163.151 -57.179 13.028 114 140 159
-161.761 -57.227 12.875 113 136 162
-160.346 -57.266 12.748 123 141 171
-158.921 -57.303 12.629 124 144 176
-157.522 -57.350 12.480 118 141 167
-156.164 -57.413 12.277 119 137 165
-154.819 -57.482 12.057 120 145 169
-153.480 -57.555 11.824 124 141 179
-152.186 -57.646 11.532 118 142 178
-150.949 -57.761 11.164 122 144 180
-149.709 -57.877 10.793 120 142 176
-148.400 -57.969 10.500 127 154 184
-147.044 -58.044 10.260 131 152 190
-145.673 -58.114 10.034 130 167 203
-144.219 -58.153 9.911 142 171 216
-142.613 -58.130 9.983 146 173 232
-140.932 -58.076 10.156 158 186 225
-139.344 -58.060 10.208 158 184 235
-137.911 -58.109 10.052 171 190 243
-136.550 -58.189 9.796 171 198 241
-135.152 -58.255 9.583 175 207 246
-133.697 -58.298 9.446 181 209 255
-132.210 -58.328 9.350 185 205 255
-130.711 -58.353 9.271 176 208 255
-129.200 -58.374 9.205 195 214 255
-127.683 -58.391 9.147 190 219 255
-126.174 -58.414 9.075 193 220 255
-124.692 -58.449 8.962 205 224 255
-123.250 -58.505 8.784 199 227 255
-121.845 -58.579 8.546 201 230 255
-120.439 -58.655 8.304 207 229 255
-118.977 -58.706 8.142 209 239 255
-117.421 -58.710 8.127 209 247 255
-115.776 -58.670 8.256 209 241 255
-114.109 -58.618 8.423 202 248 255
-112.511 -58.600 8.481 208 238 255
-111.020 -58.638 8.360 226 248 255
-109.606 -58.717 8.104 229 251 255
-108.203 -58.806 7.821 225 255 255
-106.774 -58.883 7.575 225 255 255
-105.332 -58.954 7.346 225 255 255
-103.928 -59.050 7.040 226 255 255
-102.608 -59.197 6.570 210 255 255
-101.351 -59.386 5.966 223 255 255
-100.071 -59.566 5.389 232 255 255
-98.675 -59.683 5.016 214 255 255
-97.124 -59.707 4.936 222 255 255
-95.454 -59.659 5.092 234 255 255
-93.686 -59.546 5.453 227 255 255
-91.850 -59.386 5.966 220 255 255
-90.061 -59.250 6.399 219 251 255
-88.478 -59.249 6.405 231 253 255
-87.148 -59.419 5.860 227 249 255
-85.926 -59.671 5.054 211 243 255
-84.645 -59.890 4.352 207 233 255
-83.260 -60.043 3.861 211 228 255
-81.813 -60.157 3.498 191 205 255
-80.340 -60.255 3.184 195 214 253
-78.857 -60.350 2.881 186 210 255
-77.379 -60.452 2.553 184 187 236
-75.926 -60.579 2.147 177 190 236
-74.500 -60.734 1.652 172 187 234
-73.084 -60.903 1.110 174 186 225
-71.652 -61.067 0.586 166 185 224
-70.189 -61.211 0.125 155 174 215
-68.693 -61.333 -0.267 141 174 211
-67.171 -61.437 -0.597 170 180 217
-65.622 -61.520 -0.865 158 185 229
-64.044 -61.581 -1.058 162 181 234
-62.438 -61.616 -1.172 156 185 227
-60.813 -61.635 -1.231 166 189 231
-59.186 -61.652 -1.287 172 178 223
-57.572 -61.685 -1.391 170 179 223
-55.968 -61.729 -1.534 160 171 215
-54.355 -61.768 -1.656 160 175 208
-52.724 -61.786 -1.714 162 183 210
-51.081 -61.791 -1.733 158 183 211
-49.446 -61.808 -1.784 161 176 208
-47.828 -61.847 -1.910 159 171 199
-46.219 -61.900 -2.081 156 174 200
-44.601 -61.945 -2.225 155 171 202
-42.963 -61.966 -2.292 149 164 202
-41.311 -61.966 -2.292 151 171 203
-39.652 -61.956 -2.260 157 175 205
-37.995 -61.948 -2.234 159 173 200
-36.345 -61.952 -2.247 156 168 203
-34.705 -61.973 -2.314 147 169 200
-33.069 -62.004 -2.414 159 170 201
-31.430 -62.032 -2.503 165 170 207
-29.784 -62.051 -2.562 156 161 196
-28.136 -62.066 -2.610 154 167 199
-26.490 -62.086 -2.674 155 165 191
-24.843 -62.109 -2.748 147 164 188
-23.194 -62.126 -2.803 155 165 191
-21.538 -62.129 -2.812 152 165 188
-19.877 -62.115 -2.767 145 158 188
-18.213 -62.088 -2.683 143 159 190
-16.549 -62.061 -2.594 153 158 181
-14.890 -62.043 -2.537 150 169 194
-13.236 -62.044 -2.542 153 161 195
-11.586 -62.069 -2.619 151 155 188
-9.938 -62.112 -2.759 145 157 183
-8.288 -62.162 -2.918 149 161 186
-6.635 -62.204 -3.051 152 165 188
-4.978 -62.230 -3.137 148 158 191
-3.320 -62.241 -3.172 153 162 189
-1.660 -62.239 -3.165 143 162 187
0.000 -62.231 -3.138 149 158 189
1.659 -62.224 -3.117 149 155 185
3.319 -62.223 -3.112 147 162 184
4.978 -62.222 -3.109 144 158 185
6.636 -62.212 -3.077 147 157 181
8.291 -62.185 -2.993 144 151 167
9.943 -62.145 -2.864 143 152 165
11.592 -62.101 -2.723 137 149 158
13.240 -62.065 -2.607 136 143 157
14.891 -62.045 -2.545 134 142 162
16.546 -62.047 -2.552 133 138 163
18.207 -62.069 -2.619 125 137 156
19.870 -62.094 -2.699 131 139 159
21.530 -62.106 -2.740 129 137 159
23.184 -62.101 -2.723 126 138 159
24.833 -62.083 -2.666 131 141 165
26.477 -62.054 -2.574 131 148 158
28.115 -62.017 -2.456 135 149 160
29.754 -61.988 -2.360 136 145 158
31.405 -61.984 -2.350 133 147 156
33.069 -62.005 -2.415 135 148 168
34.733 -62.022 -2.472 132 144 167
36.383 -62.017 -2.455 130 144 169
38.022 -61.992 -2.374 136 143 170
39.658 -61.965 -2.288 132 141 159
41.300 -61.951 -2.242 134 139 165
42.952 -61.950 -2.240 131 142 159
44.605 -61.952 -2.246 130 139 156
46.249 -61.941 -2.210 132 137 158
47.876 -61.909 -2.109 130 138 149
49.490 -61.862 -1.959 128 135 151
51.099 -61.813 -1.802 127 136 147
52.715 -61.775 -1.680 125 136 151
54.339 -61.749 -1.598 124 134 154
55.963 -61.724 -1.516 113 132 144
57.572 -61.684 -1.390 111 120 138
59.159 -61.624 -1.197 113 125 137
60.716 -61.536 -0.916 113 122 135
62.219 -61.400 -0.480 103 115 127
63.643 -61.195 0.176 105 111 129
64.991 -60.929 1.027 97 109 121
66.304 -60.643 1.941 102 111 128
67.626 -60.380 2.783 105 111 129
68.982 -60.159 3.493 106 113 129
70.371 -59.976 4.078 111 121 132
71.789 -59.824 4.563 122 127 136
73.225 -59.695 4.977 121 128 142
74.670 -59.577 5.354 126 130 147
76.125 -59.473 5.688 127 135 151
77.613 -59.397 5.928 126 127 145
79.142 -59.356 6.059 125 129 146
80.685 -59.328 6.152 118 130 142
82.200 -59.279 6.307 118 127 143
83.666 -59.198 6.567 118 132 141
85.096 -59.094 6.899 108 119 122
86.508 -58.983 7.255 110 116 119
87.923 -58.877 7.593 106 109 115
89.342 -58.778 7.911 105 109 112
90.795 -58.704 8.148 94 99 99
92.318 -58.676 8.236 98 102 101
93.858 -58.661 8.285 95 97 96
95.273 -58.569 8.578 91 91 91
96.522 -58.380 9.183 85 88 87
97.736 -58.176 9.837 82 84 83
99.090 -58.061 10.206 83 85 86
100.628 -58.055 10.225 77 79 81
102.293 -58.121 10.012 72 74 76
104.355 -58.408 9.096 71 75 78
107.469 -59.266 6.348 74 74 76
112.168 -60.961 0.925 66 65 70
117.137 -62.752 -4.806 79 76 84
118.297 -62.481 -3.939 86 75 97
113.963 -59.356 6.061 170 130 168
109.352 -56.174 16.244 255 229 254
107.676 -54.566 21.390 255 255 255
107.746 -53.873 23.606 255 255 255
108.055 -53.317 25.387 255 255 255
108.062 -52.627 27.592 255 255 255
108.154 -51.997 29.610 255 255 255
109.236 -51.852 30.073 255 255 255
111.998 -52.499 28.003 255 255 255
116.117 -53.758 23.975 127 119 122
120.586 -55.146 19.533 129 126 134
124.662 -56.323 15.766 126 125 144
128.173 -57.220 12.895 160 174 212
131.227 -57.894 10.738 191 161 178
134.139 -58.491 8.829 147 134 106
137.666 -59.339 6.116 125 127 126
131.381 -55.986 16.845 124 105 120
132.470 -55.816 17.389 118 111 114
133.748 -55.728 17.670 111 112 116
134.897 -55.589 18.115 155 138 114
135.179 -55.100 19.680 125 115 105
132.826 -53.559 24.611 118 122 111
136.843 -54.591 21.308 130 132 118
138.186 -54.547 21.449 124 121 127
139.434 -54.466 21.708 138 140 141
140.523 -54.326 22.157 138 142 146
141.550 -54.165 22.673 112 114 114
144.121 -54.591 21.308 146 136 126
144.967 -54.362 22.040 146 139 121
146.382 -54.350 22.081 162 164 123
147.837 -54.352 22.075 112 111 118
149.414 -54.398 21.926 144 161 169
151.400 -54.591 21.308 123 116 118
160.382 -57.279 12.707 124 122 132
166.132 -58.773 7.926 155 154 134
172.400 -60.420 2.655 106 101 105
179.177 -62.214 -3.086 141 124 91
186.472 -64.153 -9.290 178 193 127
194.249 -66.221 -15.908 166 173 130
197.586 -66.752 -17.606 119 120 117
200.789 -67.228 -19.131 142 153 142
203.858 -67.652 -20.486 132 148 145
206.789 -68.023 -21.673 129 125 108
209.572 -68.339 -22.684 153 148 111
212.038 -68.547 -23.349 114 114 112
214.394 -68.716 -23.891 124 121 110
216.637 -68.847 -24.309 129 138 121
218.749 -68.933 -24.587 130 130 130
-177.897 -57.075 18.103 97 113 137
-176.720 -57.174 17.795 100 117 143
-175.522 -57.268 17.503 99 117 147
-174.351 -57.372 17.179 106 122 149
-173.241 -57.498 16.786 102 121 144
-172.136 -57.628 16.380 102 121 144
-170.953 -57.734 16.050 111 121 145
-169.723 -57.826 15.763 110 129 155
-168.572 -57.947 15.387 105 120 142
-167.546 -58.113 14.869 109 130 153
-166.529 -58.285 14.332 111 134 158
-165.375 -58.412 13.936 109 136 154
-164.078 -58.491 13.691 108 134 155
-162.746 -58.558 13.481 113 137 156
-161.442 -58.637 13.236 110 131 156
-160.135 -58.716 12.989 116 134 167
-158.782 -58.780 12.790 106 137 158
-157.384 -58.828 12.641 113 137 158
-155.971 -58.871 12.505 116 131 160
-154.563 -58.917 12.361 115 138 167
-153.187 -58.977 12.176 121 146 174
-151.881 -59.065 11.902 124 144 176
-150.644 -59.182 11.538 127 142 178
-149.416 -59.304 11.156 117 139 170
-148.128 -59.405 10.840 125 145 179
-146.784 -59.486 10.588 118 151 172
-145.372 -59.541 10.419 129 153 188
-143.788 -59.525 10.468 134 157 197
-142.004 -59.426 10.778 145 162 209
-140.214 -59.321 11.102 138 168 210
-138.682 -59.325 11.091 149 169 213
-137.438 -59.454 10.690 148 190 210
-136.269 -59.618 10.179 154 186 230
-134.975 -59.730 9.828 163 187 238
-133.537 -59.781 9.670 168 202 243
-132.032 -59.803 9.603 162 197 251
-130.514 -59.819 9.551 174 208 252
-128.997 -59.836 9.498 191 211 255
-127.479 -59.853 9.446 182 228 255
-125.966 -59.873 9.384 189 210 255
-124.467 -59.900 9.299 184 229 255
-122.998 -59.942 9.167 194 216 255
-121.570 -60.005 8.970 207 220 255
-120.168 -60.084 8.726 210 228 255
-118.752 -60.157 8.496 213 232 255
-117.275 -60.201 8.360 211 224 255
-115.707 -60.199 8.367 209 241 255
-114.082 -60.167 8.468 209 238 255
-112.483 -60.147 8.529 211 244 255
-110.976 -60.177 8.435 215 248 255
-109.560 -60.258 8.182 216 244 255
-108.172 -60.357 7.875 221 252 255
-106.752 -60.440 7.614 227 255 255
-105.291 -60.503 7.418 226 255 255
-103.836 -60.571 7.207 238 255 255
-102.446 -60.680 6.868 235 255 255
-101.133 -60.838 6.375 234 255 255
-99.828 -61.006 5.851 227 255 255
-98.434 -61.125 5.482 223 255 255
-96.891 -61.153 5.394 225 255 255
-95.234 -61.109 5.531 226 251 255
-93.503 -61.015 5.824 225 255 255
-91.740 -60.897 6.193 220 255 255
-90.034 -60.813 6.454 216 255 255
-88.502 -60.845 6.353 221 255 255
-87.167 -61.017 5.816 232 255 255
-85.907 -61.248 5.096 225 255 255
-84.587 -61.445 4.483 227 239 255
-83.178 -61.583 4.052 223 230 255
-81.707 -61.681 3.748 218 235 255
-80.193 -61.749 3.536 205 228 255
-78.648 -61.795 3.391 194 208 255
-77.099 -61.840 3.253 200 209 255
-75.582 -61.913 3.026 199 208 249
-74.116 -62.032 2.653 187 196 241
-72.695 -62.195 2.147 171 188 237
-71.294 -62.383 1.561 169 186 239
-69.886 -62.572 0.970 172 179 236
-68.447 -62.743 0.438 162 176 228
-66.963 -62.880 0.010 148 176 201
-65.431 -62.977 -0.293 146 178 217
-63.859 -63.041 -0.490 157 179 226
-62.265 -63.085 -0.628 142 181 223
-60.663 -63.122 -0.745 159 189 229
-59.063 -63.165 -0.877 159 190 225
-57.473 -63.220 -1.049 168 187 226
-55.887 -63.284 -1.250 168 167 215
-54.295 -63.344 -1.435 166 179 213
-52.684 -63.386 -1.566 155 185 211
-51.060 -63.414 -1.653 157 179 215
-49.439 -63.447 -1.757 160 181 217
-47.829 -63.497 -1.914 163 175 210
-46.223 -63.557 -2.100 159 175 201
-44.603 -63.601 -2.236 147 163 201
-42.959 -63.612 -2.271 145 170 200
-41.297 -63.597 -2.226 161 172 202
-39.630 -63.574 -2.151 151 169 201
-37.968 -63.556 -2.095 153 174 197
-36.317 -63.555 -2.093 155 174 211
-34.677 -63.574 -2.153 154 174 204
-33.042 -63.606 -2.252 155 171 200
-31.405 -63.637 -2.348 160 167 210
-29.764 -63.662 -2.428 162 171 211
-28.122 -63.689 -2.510 158 169 202
-26.480 -63.718 -2.602 155 166 194
-24.835 -63.742 -2.676 149 167 193
-23.183 -63.754 -2.713 151 162 195
-21.527 -63.753 -2.711 156 168 193
-19.868 -63.744 -2.683 147 161 188
-18.208 -63.729 -2.634 157 162 190
-16.548 -63.709 -2.575 152 166 193
-14.890 -63.696 -2.533 152 166 193
-13.236 -63.697 -2.537 151 163 191
-11.585 -63.718 -2.601 152 164 190
-9.936 -63.753 -2.712 152 165 188
-8.285 -63.798 -2.850 150 169 192
-6.633 -63.843 -2.992 150 169 190
-4.978 -63.884 -3.119 144 168 190
-3.320 -63.912 -3.207 145 160 180
-1.660 -63.923 -3.242 151 163 191
0.000 -63.919 -3.227 156 162 192
1.660 -63.904 -3.180 155 167 190
3.319 -63.885 -3.121 153 168 190
4.977 -63.866 -3.062 140 163 187
6.633 -63.846 -3.001 155 156 176
8.288 -63.820 -2.918 144 151 169
9.940 -63.783 -2.804 138 154 167
11.589 -63.739 -2.668 132 145 161
13.236 -63.696 -2.534 138 141 165
14.883 -63.666 -2.440 135 136 158
16.535 -63.660 -2.420 125 128 152
18.194 -63.680 -2.483 133 140 153
19.858 -63.712 -2.584 130 136 159
21.521 -63.735 -2.654 124 141 158
23.176 -63.734 -2.652 130 133 157
24.824 -63.715 -2.592 131 140 157
26.467 -63.685 -2.500 128 142 155
28.106 -63.652 -2.396 130 138 158
29.748 -63.627 -2.318 130 138 158
31.399 -63.624 -2.309 135 141 162
33.058 -63.636 -2.346 128 139 158
34.713 -63.641 -2.360 129 144 162
36.358 -63.626 -2.315 128 135 160
37.998 -63.605 -2.249 130 136 159
39.644 -63.595 -2.218 135 142 158
41.299 -63.600 -2.234 131 141 165
42.957 -63.609 -2.262 132 137 160
44.607 -63.606 -2.253 128 134 155
46.242 -63.583 -2.180 129 136 152
47.865 -63.544 -2.060 130 134 151
49.484 -63.505 -1.936 132 137 158
51.108 -63.473 -1.836 129 135 154
52.737 -63.449 -1.763 127 135 153
54.367 -63.429 -1.700 118 129 146
55.990 -63.400 -1.612 118 129 148
57.592 -63.351 -1.457 116 129 148
59.163 -63.271 -1.209 114 123 138
60.693 -63.153 -0.841 118 122 139
62.160 -62.977 -0.293 109 113 130
63.544 -62.729 0.481 100 106 125
64.861 -62.429 1.418 103 109 125
66.164 -62.130 2.349 103 113 125
67.502 -61.877 3.136 105 106 124
68.889 -61.680 3.752 110 116 134
70.313 -61.524 4.236 118 125 138
71.763 -61.397 4.633 120 125 139
73.221 -61.283 4.989 114 120 139
74.669 -61.165 5.355 125 134 154
76.110 -61.047 5.724 125 131 149
77.571 -60.948 6.031 124 128 145
79.074 -60.887 6.222 120 132 146
80.606 -60.850 6.338 123 132 147
82.129 -60.807 6.473 121 128 142
83.615 -60.739 6.683 118 126 132
85.067 -60.650 6.962 112 120 128
86.496 -60.547 7.282 103 109 116
87.917 -60.443 7.607 105 108 114
89.334 -60.340 7.928 102 106 109
90.779 -60.258 8.182 100 104 105
92.282 -60.218 8.309 95 100 98
93.791 -60.182 8.418 92 95 92
95.179 -60.072 8.763 88 90 87
96.419 -59.873 9.382 83 85 86
97.639 -59.668 10.020 81 81 81
98.983 -59.544 10.407 81 83 84
100.476 -59.513 10.506 75 77 78
102.087 -59.551 10.388 74 79 80
104.081 -59.808 9.586 70 72 76
106.991 -60.576 7.192 71 69 77
111.068 -61.973 2.838 74 76 77
115.097 -63.304 -1.310 69 68 75
116.495 -63.170 -0.892 93 82 95
114.029 -60.974 5.952 136 105 138
110.269 -58.156 14.736 222 189 164
108.227 -56.307 20.498 255 255 185
108.025 -55.453 23.160 255 255 255
108.462 -54.945 24.744 255 255 255
108.832 -54.416 26.392 255 255 255
109.293 -53.946 27.857 255 255 255
110.508 -53.855 28.140 255 255 255
112.903 -54.335 26.645 174 188 156
116.052 -55.160 24.071 135 127 130
119.217 -55.974 21.536 119 120 99
122.032 -56.605 19.568 136 143 138
124.510 -57.067 18.129 125 121 116
126.756 -57.413 17.050 123 121 133
128.851 -57.683 16.207 126 126 126
131.403 -58.150 14.754 141 142 121
130.570 -57.125 17.950 168 170 140
132.018 -57.109 17.998 123 126 134
133.495 -57.106 18.007 165 143 153
134.820 -57.039 18.215 171 195 159
135.390 -56.658 19.405 122 130 118
132.720 -54.943 24.748 135 135 133
136.843 -56.047 21.308 164 173 154
138.140 -55.983 21.507 147 147 151
139.380 -55.897 21.775 153 174 126
140.475 -55.756 22.217 114 119 115
141.517 -55.596 22.714 120 121 130
144.121 -56.047 21.308 131 127 124
144.888 -55.782 22.134 129 111 99
146.309 -55.771 22.168 127 130 129
147.781 -55.780 22.140 162 160 158
149.396 -55.842 21.946 147 154 113
151.400 -56.047 21.308 126 130 108
158.389 -58.076 14.984 210 194 122
163.551 -59.403 10.849 150 185 137
169.694 -61.058 5.689 147 129 110
176.979 -63.090 -0.644 111 119 114
185.628 -65.566 -8.361 158 144 149
195.948 -68.582 -17.762 146 144 117
199.158 -69.077 -19.306 157 159 143
202.223 -69.514 -20.668 136 121 119
205.156 -69.898 -21.864 119 126 126
207.963 -70.233 -22.908 128 121 119
210.642 -70.519 -23.801 138 132 127
213.022 -70.701 -24.367 165 173 122
215.307 -70.849 -24.827 149 150 140
217.501 -70.964 -25.187 122 127 125
219.604 -71.048 -25.450 129 138 121
-175.590 -57.798 20.411 94 113 136
-174.916 -58.060 19.615 100 119 144
-174.155 -58.298 18.893 100 113 141
-173.297 -58.506 18.259 106 123 147
-172.371 -58.695 17.685 102 122 142
-171.376 -58.864 17.173 100 117 141
-170.285 -59.002 16.753 108 127 150
-169.162 -59.132 16.359 102 121 146
-168.129 -59.295 15.862 107 120 148
-167.200 -59.499 15.243 110 125 147
-166.212 -59.685 14.678 111 125 152
-165.006 -59.796 14.342 105 129 148
-163.628 -59.846 14.191 108 127 150
-162.251 -59.896 14.036 110 134 151
-160.967 -59.983 13.773 116 130 157
-159.728 -60.088 13.454 109 129 157
-158.442 -60.178 13.182 117 136 160
-157.077 -60.238 12.998 116 135 160
-155.663 -60.281 12.867 122 135 165
-154.247 -60.324 12.736 120 143 167
-152.876 -60.386 12.549 118 138 168
-151.573 -60.476 12.275 120 143 171
-150.320 -60.588 11.934 115 138 167
-149.064 -60.701 11.591 118 140 171
-147.756 -60.796 11.305 125 138 172
-146.385 -60.865 11.093 121 139 169
-144.879 -60.880 11.048 132 140 176
-143.096 -60.777 11.360 129 145 189
-141.073 -60.569 11.992 123 151 192
-139.158 -60.404 12.495 134 154 200
-137.735 -60.450 12.353 138 164 196
-136.780 -60.706 11.577 144 170 204
-135.907 -61.003 10.673 153 178 222
-134.784 -61.195 10.091 151 179 218
-133.391 -61.267 9.873 146 192 231
-131.879 -61.285 9.818 154 190 237
-130.359 -61.300 9.773 164 208 255
-128.851 -61.321 9.709 173 209 254
-127.339 -61.340 9.650 164 212 252
-125.815 -61.354 9.607 181 219 254
-124.286 -61.366 9.571 187 216 255
-122.776 -61.388 9.505 188 211 255
-121.312 -61.433 9.367 192 219 255
-119.902 -61.508 9.140 199 227 255
-118.522 -61.600 8.860 195 231 255
-117.119 -61.682 8.610 208 230 255
-115.640 -61.726 8.477 199 230 255
-114.081 -61.729 8.469 212 243 255
-112.503 -61.720 8.495 211 243 255
-110.976 -61.740 8.435 207 243 255
-109.525 -61.803 8.244 202 248 255
-108.110 -61.889 7.983 206 251 255
-106.678 -61.968 7.744 214 247 255
-105.207 -62.025 7.570 225 255 255
-103.722 -62.076 7.415 230 255 255
-102.277 -62.153 7.182 235 255 255
-100.901 -62.275 6.811 240 255 255
-99.554 -62.419 6.373 233 255 255
-98.146 -62.529 6.040 227 255 255
-96.613 -62.561 5.943 246 255 255
-94.984 -62.531 6.031 229 255 255
-93.322 -62.478 6.193 229 255 255
-91.672 -62.432 6.335 216 255 255
-90.081 -62.425 6.355 236 255 255
-88.600 -62.495 6.143 231 255 255
-87.232 -62.649 5.675 233 254 255
-85.903 -62.837 5.104 239 255 255
-84.540 -63.006 4.590 240 255 255
-83.120 -63.139 4.184 244 255 255
-81.648 -63.237 3.887 226 255 255
-80.114 -63.290 3.726 229 255 255
-78.523 -63.299 3.699 222 244 255
-76.901 -63.283 3.747 208 217 255
-75.293 -63.278 3.762 192 208 250
-73.741 -63.321 3.631 182 211 255
-72.270 -63.437 3.279 203 201 255
-70.877 -63.628 2.698 185 204 255
-69.523 -63.864 1.982 185 193 243
-68.153 -64.097 1.276 169 182 241
-66.724 -64.283 0.710 171 185 228
-65.220 -64.405 0.340 167 181 221
-63.660 -64.476 0.124 163 177 218
-62.077 -64.528 -0.033 164 178 219
-60.494 -64.582 -0.198 149 174 220
-58.917 -64.645 -0.391 168 177 217
-57.346 -64.719 -0.615 158 179 231
-55.776 -64.799 -0.858 164 185 209
-54.201 -64.877 -1.094 164 185 226
-52.612 -64.943 -1.294 168 183 219
-51.010 -64.997 -1.459 166 173 214
-49.407 -65.053 -1.628 159 177 210
-47.808 -65.117 -1.825 163 180 215
-46.205 -65.182 -2.021 153 166 212
-44.582 -65.222 -2.142 159 169 207
-42.933 -65.225 -2.152 155 170 204
-41.268 -65.203 -2.085 160 170 194
-39.601 -65.177 -2.005 157 175 205
-37.942 -65.161 -1.958 153 176 198
-36.295 -65.166 -1.972 159 179 209
-34.658 -65.190 -2.046 156 172 210
-33.025 -65.224 -2.148 153 167 207
-31.389 -65.256 -2.246 163 171 207
-29.751 -65.287 -2.341 163 176 206
-28.114 -65.323 -2.449 158 169 200
-26.474 -65.359 -2.559 152 171 199
-24.828 -65.380 -2.624 154 175 200
-23.174 -65.383 -2.631 155 164 193
-21.516 -65.376 -2.611 154 163 194
-19.860 -65.374 -2.605 159 166 195
-18.206 -65.376 -2.610 156 169 197
-16.550 -65.374 -2.606 154 165 191
-14.894 -65.370 -2.592 158 172 199
-13.239 -65.369 -2.589 155 166 194
-11.586 -65.378 -2.618 144 168 190
-9.934 -65.400 -2.682 144 168 190
-8.283 -65.434 -2.788 153 167 196
-6.631 -65.482 -2.934 155 166 194
-4.977 -65.535 -3.093 148 166 194
-3.320 -65.577 -3.221 150 166 197
-1.661 -65.598 -3.286 150 169 190
0.000 -65.597 -3.281 147 156 183
1.660 -65.576 -3.220 148 160 185
3.319 -65.546 -3.127 149 166 190
4.976 -65.514 -3.030 149 162 182
6.631 -65.485 -2.943 151 153 180
8.286 -65.459 -2.862 148 152 183
9.938 -65.428 -2.769 137 153 166
11.588 -65.387 -2.645 133 154 163
13.233 -65.338 -2.494 129 144 162
14.877 -65.294 -2.362 131 139 161
16.526 -65.278 -2.312 130 135 161
18.184 -65.299 -2.376 137 146 163
19.851 -65.341 -2.505 127 138 157
21.516 -65.374 -2.605 126 141 161
23.171 -65.377 -2.613 123 128 156
24.818 -65.354 -2.543 133 143 167
26.460 -65.322 -2.447 128 144 154
28.102 -65.295 -2.364 135 146 163
29.747 -65.278 -2.313 139 141 161
31.397 -65.273 -2.296 125 135 159
33.047 -65.268 -2.283 128 135 158
34.690 -65.250 -2.229 133 139 159
36.325 -65.220 -2.138 128 135 158
37.965 -65.200 -2.076 132 141 161
39.619 -65.206 -2.093 130 146 161
41.284 -65.229 -2.165 134 142 160
42.948 -65.248 -2.221 135 142 165
44.596 -65.242 -2.203 132 142 152
46.226 -65.211 -2.110 130 131 152
47.848 -65.173 -1.994 134 142 158
49.477 -65.145 -1.908 130 138 158
51.113 -65.128 -1.857 129 133 150
52.749 -65.112 -1.809 125 138 154
54.377 -65.087 -1.733 127 135 155
55.991 -65.048 -1.614 119 130 149
57.583 -64.987 -1.428 117 128 145
59.145 -64.895 -1.149 117 128 145
60.658 -64.757 -0.730 103 120 137
62.099 -64.550 -0.102 108 114 133
63.454 -64.267 0.759 106 112 131
64.752 -63.943 1.743 100 108 128
66.058 -63.642 2.658 110 120 130
67.416 -63.403 3.383 109 114 126
68.828 -63.226 3.921 115 119 136
70.278 -63.091 4.332 116 127 143
71.750 -62.981 4.666 120 126 145
73.226 -62.878 4.977 118 129 148
74.681 -62.763 5.326 124 132 152
76.111 -62.633 5.721 120 132 146
77.547 -62.512 6.089 126 137 152
79.021 -62.427 6.349 124 135 152
80.538 -62.377 6.499 114 128 139
82.066 -62.338 6.618 118 125 136
83.573 -62.285 6.779 115 129 141
85.045 -62.209 7.011 113 122 133
86.480 -62.109 7.316 107 110 120
87.888 -61.992 7.669 103 109 114
89.277 -61.867 8.049 100 102 106
90.679 -61.755 8.389 98 102 103
92.115 -61.670 8.648 99 103 104
93.547 -61.585 8.907 95 97 96
94.895 -61.448 9.322 93 96 95
96.169 -61.269 9.866 81 83 84
97.477 -61.116 10.330 72 77 75
98.895 -61.037 10.572 81 87 92
100.415 -61.022 10.618 77 81 82
102.006 -61.049 10.535 68 72 78
103.829 -61.213 10.037 71 72 79
106.197 -61.688 8.594 70 71 80
109.237 -62.534 6.023 71 72 79
112.264 -63.349 3.548 74 72 82
113.839 -63.333 3.596 73 71 81
112.876 -61.925 7.874 112 93 102
110.248 -59.654 14.771 162 145 119
108.328 -57.823 20.334 213 185 160
108.164 -56.966 22.938 243 251 148
109.020 -56.661 23.864 255 255 206
110.067 -56.463 24.468 255 255 255
111.142 -56.284 25.012 254 255 209
112.516 -56.258 25.090 191 207 178
114.339 -56.455 24.492 138 161 144
116.339 -56.733 23.646 133 134 141
118.215 -56.945 23.002 125 125 136
119.908 -57.065 22.639 127 138 139
121.498 -57.133 22.431 146 141 143
123.072 -57.192 22.252 137 137 124
124.481 -57.174 22.306 162 149 121
126.091 -57.248 22.081 149 153 126
129.338 -58.055 19.630 111 113 114
131.045 -58.160 19.311 133 149 146
132.658 -58.222 19.123 128 128 128
134.089 -58.203 19.180 125 119 130
134.906 -57.922 20.036 122 117 133
135.307 -57.469 21.411 144 145 136
136.604 -57.403 21.613 144 162 151
137.913 -57.343 21.794 144 122 115
139.160 -57.258 22.050 177 192 168
140.303 -57.134 22.429 116 115 111
141.481 -57.025 22.758 185 205 141
144.121 -57.503 21.308 160 173 146
144.750 -57.176 22.300 107 111 103
146.184 -57.171 22.316 105 109 108
147.690 -57.194 22.247 121 117 118
149.379 -57.286 21.966 137 134 151
151.400 -57.503 21.308 118 119 125
156.648 -58.930 16.974 134 138 126
161.092 -60.029 13.632 121 120 123
166.764 -61.562 8.975 130 138 130
174.208 -63.715 2.436 141 130 102
184.382 -66.817 -6.990 175 188 150
199.344 -71.582 -21.466 160 150 140
202.218 -71.960 -22.614 129 133 109
204.957 -72.284 -23.597 126 146 119
207.586 -72.563 -24.445 105 112 112
210.117 -72.804 -25.176 159 175 145
212.562 -73.011 -25.804 118 118 118
214.786 -73.138 -26.192 158 141 122
216.944 -73.242 -26.506 157 176 128
219.041 -73.323 -26.754 138 141 122
221.082 -73.384 -26.940 110 109 116
-173.112 -58.425 22.888 97 107 129
-172.992 -58.875 21.555 92 108 135
-172.723 -59.282 20.350 99 116 140
-172.217 -59.614 19.367 95 117 137
-171.483 -59.871 18.603 98 116 142
-170.585 -60.076 17.998 107 124 146
-169.576 -60.244 17.499 98 113 137
-168.569 -60.416 16.989 103 119 143
-167.681 -60.635 16.342 111 127 153
-166.880 -60.889 15.589 103 117 146
-165.941 -61.096 14.974 98 119 144
-164.679 -61.188 14.702 101 120 145
-163.181 -61.193 14.688 109 129 149
-161.694 -61.202 14.661 111 127 151
-160.356 -61.268 14.464 98 127 147
-159.125 -61.377 14.143 107 131 153
-157.887 -61.485 13.822 112 131 154
-156.581 -61.568 13.576 109 135 158
-155.220 -61.631 13.388 114 133 158
-153.856 -61.695 13.201 112 125 158
-152.534 -61.776 12.959 115 135 167
-151.257 -61.878 12.659 114 132 162
-149.983 -61.983 12.347 116 136 166
-148.673 -62.075 12.074 120 141 170
-147.309 -62.146 11.864 128 143 177
-145.880 -62.191 11.730 122 147 177
-144.276 -62.161 11.818 116 143 172
-142.328 -61.982 12.351 124 148 185
-140.130 -61.687 13.222 126 145 184
-138.149 -61.484 13.826 123 152 188
-136.849 -61.582 13.535 127 172 205
-136.158 -61.960 12.416 143 161 200
-135.549 -62.383 11.160 143 171 209
-134.588 -62.653 10.361 142 175 212
-133.250 -62.752 10.070 143 169 222
-131.748 -62.774 10.003 152 176 225
-130.243 -62.796 9.938 165 193 234
-128.761 -62.829 9.840 157 200 227
-127.261 -62.854 9.765 157 195 216
-125.725 -62.862 9.741 170 197 238
-124.167 -62.859 9.750 176 208 248
-122.622 -62.863 9.739 176 208 250
-121.127 -62.893 9.651 180 208 255
-119.702 -62.960 9.451 188 231 255
-118.334 -63.060 9.156 202 233 255
-116.977 -63.168 8.836 199 226 255
-115.568 -63.250 8.592 197 222 255
-114.074 -63.288 8.481 197 240 255
-112.521 -63.293 8.466 188 245 255
-110.967 -63.298 8.450 198 242 255
-109.459 -63.330 8.355 200 239 255
-107.994 -63.388 8.184 217 250 255
-106.536 -63.452 7.995 215 247 255
-105.058 -63.505 7.837 230 251 255
-103.565 -63.551 7.701 230 255 255
-102.093 -63.611 7.522 233 255 255
-100.674 -63.708 7.237 225 255 255
-99.286 -63.827 6.884 227 255 255
-97.856 -63.922 6.601 232 255 255
-96.327 -63.955 6.505 223 255 255
-94.726 -63.940 6.548 227 255 255
-93.123 -63.923 6.598 230 255 255
-91.559 -63.933 6.568 232 255 255
-90.043 -63.978 6.435 225 255 255
-88.578 -64.061 6.190 235 255 255
-87.164 -64.185 5.823 235 255 255
-85.779 -64.334 5.380 226 255 255
-84.395 -64.490 4.918 230 255 255
-82.988 -64.635 4.489 220 255 255
-81.535 -64.748 4.154 227 255 255
-80.005 -64.804 3.987 220 255 255
-78.397 -64.798 4.006 214 255 255
-76.724 -64.736 4.189 227 251 255
-75.025 -64.649 4.446 219 238 255
-73.365 -64.593 4.614 212 218 255
-71.816 -64.635 4.490 214 224 255
-70.414 -64.813 3.961 215 218 255
-69.113 -65.095 3.125 184 225 255
-67.824 -65.401 2.218 195 213 255
-66.466 -65.656 1.465 193 201 253
-65.008 -65.820 0.977 191 195 239
-63.469 -65.910 0.712 173 182 238
-61.895 -65.968 0.541 165 174 228
-60.321 -66.027 0.366 161 173 224
-58.754 -66.098 0.153 155 178 204
-57.195 -66.182 -0.095 162 171 211
-55.637 -66.273 -0.365 173 180 219
-54.076 -66.366 -0.641 154 176 209
-52.507 -66.454 -0.900 162 183 223
-50.928 -66.535 -1.140 170 184 227
-49.345 -66.615 -1.379 161 172 218
-47.758 -66.696 -1.618 160 172 211
-46.159 -66.765 -1.824 163 167 211
-44.536 -66.804 -1.939 156 178 210
-42.890 -66.809 -1.952 167 175 209
-41.231 -66.794 -1.909 166 187 214
-39.573 -66.780 -1.866 157 178 200
-37.923 -66.777 -1.859 158 171 201
-36.282 -66.793 -1.904 161 174 208
-34.649 -66.824 -1.996 167 173 221
-33.018 -66.861 -2.107 154 168 207
-31.384 -66.897 -2.215 163 178 214
-29.749 -66.935 -2.325 156 183 197
-28.113 -66.976 -2.447 166 184 198
-26.474 -67.012 -2.553 158 179 204
-24.824 -67.025 -2.593 159 172 202
-23.166 -67.016 -2.566 156 167 195
-21.507 -67.002 -2.526 160 165 205
-19.853 -67.005 -2.533 157 168 199
-18.204 -67.023 -2.587 158 170 198
-16.553 -67.041 -2.639 157 158 192
-14.899 -67.047 -2.657 156 167 197
-13.243 -67.044 -2.650 157 173 204
-11.588 -67.044 -2.648 157 168 201
-9.934 -67.054 -2.680 155 172 194
-8.282 -67.083 -2.765 151 163 191
-6.630 -67.132 -2.909 149 171 203
-4.977 -67.189 -3.078 151 169 197
-3.320 -67.236 -3.219 156 170 195
-1.661 -67.260 -3.290 156 170 195
0.000 -67.257 -3.281 150 164 187
1.660 -67.233 -3.210 152 167 185
3.318 -67.198 -3.106 159 168 193
4.975 -67.162 -2.997 147 162 184
6.630 -67.131 -2.907 145 155 179
8.285 -67.108 -2.838 148 154 184
9.938 -67.084 -2.768 136 149 168
11.589 -67.048 -2.661 141 151 173
13.234 -66.995 -2.505 139 149 171
14.877 -66.945 -2.355 137 142 168
16.525 -66.926 -2.299 134 144 168
18.184 -66.951 -2.374 132 141 168
19.852 -67.002 -2.524 129 144 164
21.519 -67.040 -2.637 128 146 165
23.175 -67.041 -2.640 130 139 165
24.819 -67.011 -2.552 130 142 168
26.459 -66.975 -2.444 138 148 170
28.103 -66.950 -2.371 133 146 162
29.750 -66.936 -2.330 136 144 166
31.397 -66.925 -2.296 135 135 162
33.039 -66.903 -2.231 132 141 168
34.671 -66.865 -2.119 133 136 162
36.299 -66.823 -1.995 137 140 162
37.937 -66.803 -1.934 135 144 159
39.594 -66.816 -1.972 136 144 164
41.264 -66.848 -2.067 141 142 160
42.928 -66.869 -2.131 133 145 168
44.575 -66.863 -2.112 134 139 163
46.206 -66.833 -2.025 137 144 160
47.835 -66.804 -1.937 135 143 161
49.472 -66.787 -1.889 131 139 159
51.114 -66.777 -1.859 133 144 163
52.745 -66.756 -1.795 126 146 160
54.360 -66.715 -1.674 122 142 160
55.958 -66.656 -1.499 123 131 153
57.535 -66.577 -1.264 116 126 145
59.082 -66.467 -0.940 115 121 140
60.576 -66.306 -0.462 106 117 136
61.993 -66.071 0.234 113 119 138
63.331 -65.767 1.136 109 112 134
64.633 -65.441 2.102 110 116 134
65.959 -65.154 2.950 112 117 131
67.343 -64.938 3.590 111 117 133
68.781 -64.782 4.053 120 125 139
70.252 -64.664 4.404 114 125 142
71.740 -64.566 4.694 124 134 156
73.227 -64.472 4.973 123 136 157
74.689 -64.359 5.306 130 137 153
76.114 -64.221 5.714 127 135 153
77.530 -64.081 6.131 124 135 152
78.979 -63.973 6.450 123 136 155
80.482 -63.912 6.631 131 135 154
82.015 -63.877 6.735 120 128 144
83.541 -63.838 6.852 114 123 138
85.028 -63.771 7.048 116 119 129
86.460 -63.666 7.360 110 113 124
87.839 -63.526 7.774 94 99 107
89.182 -63.366 8.249 101 105 108
90.527 -63.213 8.702 98 102 105
91.888 -63.076 9.108 100 102 104
93.246 -62.941 9.508 88 93 91
94.586 -62.799 9.929 83 85 86
95.959 -62.683 10.273 86 85 88
97.424 -62.630 10.430 77 81 82
98.959 -62.622 10.452 81 86 86
100.520 -62.632 10.424 74 79 80
102.099 -62.651 10.366 74 78 82
103.742 -62.710 10.193 69 75 80
105.547 -62.863 9.740 69 70 77
107.616 -63.166 8.843 74 73 78
109.749 -63.498 7.859 63 66 72
111.198 -63.430 8.059 74 71 77
111.003 -62.439 10.994 97 86 94
109.180 -60.572 16.526 127 120 116
107.561 -58.868 21.577 164 145 126
107.686 -58.151 23.702 195 178 140
109.184 -58.184 23.604 236 218 142
111.156 -58.465 22.770 221 223 170
113.132 -58.742 21.950 169 195 152
114.915 -58.912 21.445 141 145 137
116.342 -58.898 21.487 116 113 119
117.379 -58.690 22.105 113 121 118
118.192 -58.375 23.037 135 142 126
118.980 -58.057 23.981 108 112 104
119.839 -57.780 24.801 108 117 121
120.881 -57.596 25.345 140 158 134
121.695 -57.310 26.194 110 133 132
122.515 -57.033 27.014 110 122 120
127.913 -58.869 21.574 132 124 117
129.637 -58.992 21.209 153 147 113
131.202 -59.041 21.065 145 130 121
132.553 -58.993 21.205 155 150 124
133.534 -58.784 21.825 116 124 117
134.799 -58.703 22.067 137 136 139
136.130 -58.652 22.217 133 124 122
137.444 -58.594 22.387 130 124 132
138.728 -58.526 22.590 208 240 238
139.966 -58.439 22.846 120 119 101
141.442 -58.453 22.806 144 142 124
144.121 -58.959 21.308 184 184 140
144.529 -58.534 22.566 156 156 129
145.978 -58.536 22.561 124 130 126
147.537 -58.581 22.427 151 159 136
149.371 -58.733 21.975 134 131 125
151.400 -58.959 21.308 178 174 146
152.944 -58.993 21.207 133 137 128
155.128 -59.270 20.384 142 147 143
157.694 -59.688 19.147 128 130 136
160.787 -60.295 17.348 139 133 128
164.646 -61.176 14.739 134 138 128
169.869 -62.543 10.689 138 159 145
171.413 -62.543 10.689 144 139 129
172.957 -62.543 10.689 111 125 109
174.501 -62.543 10.689 116 110 107
176.046 -62.543 10.689 120 119 112
177.590 -62.543 10.689 132 133 130
179.053 -62.514 10.773 127 132 130
180.547 -62.497 10.824 117 114 101
182.105 -62.502 10.808 177 185 108
183.764 -62.541 10.692 167 172 111
-171.314 -59.246 24.686 95 108 138
-171.483 -59.803 23.076 90 106 133
-171.481 -60.309 21.612 101 113 137
-171.184 -60.719 20.427 88 107 135
-170.580 -61.026 19.538 98 115 139
-169.758 -61.261 18.861 96 116 137
-168.820 -61.456 18.295 96 112 140
-167.908 -61.665 17.691 98 122 141
-167.138 -61.931 16.923 101 121 141
-166.454 -62.233 16.050 96 110 135
-165.584 -62.470 15.362 107 126 151
-164.310 -62.558 15.109 99 116 138
-162.723 -62.528 15.197 108 122 145
-161.122 -62.491 15.302 98 113 137
-159.703 -62.525 15.204 105 119 148
-158.451 -62.626 14.913 109 128 153
-157.249 -62.748 14.559 103 124 147
-156.008 -62.857 14.244 106 132 151
-154.717 -62.948 13.980 116 133 154
-153.417 -63.038 13.722 112 129 153
-152.152 -63.143 13.418 112 127 159
-150.902 -63.257 13.088 111 132 159
-149.609 -63.355 12.805 116 134 162
-148.242 -63.423 12.608 114 139 167
-146.819 -63.469 12.476 121 136 170
-145.350 -63.495 12.400 118 138 168
-143.719 -63.450 12.529 122 143 167
-141.758 -63.258 13.086 122 140 172
-139.578 -62.962 13.941 116 147 180
-137.657 -62.778 14.474 124 157 191
-136.444 -62.916 14.075 138 160 207
-135.846 -63.344 12.837 139 157 199
-135.318 -63.814 11.476 144 154 203
-134.408 -64.114 10.610 135 157 204
-133.092 -64.225 10.290 139 170 207
-131.604 -64.254 10.206 149 176 210
-130.123 -64.287 10.111 150 181 214
-128.668 -64.334 9.974 148 188 209
-127.183 -64.367 9.878 158 197 222
-125.646 -64.374 9.858 167 185 231
-124.078 -64.365 9.884 167 190 232
-122.521 -64.362 9.892 165 207 243
-121.012 -64.385 9.828 180 213 255
-119.572 -64.444 9.655 188 224 255
-118.196 -64.541 9.374 198 217 255
-116.853 -64.659 9.035 206 222 255
-115.483 -64.764 8.731 192 216 255
-114.034 -64.828 8.547 180 225 255
-112.502 -64.845 8.497 191 236 255
-110.932 -64.840 8.510 206 238 255
-109.382 -64.848 8.488 216 243 255
-107.876 -64.882 8.390 197 239 255
-106.393 -64.931 8.248 210 245 255
-104.905 -64.979 8.110 218 247 255
-103.408 -65.021 7.986 222 254 255
-101.920 -65.072 7.841 219 255 255
-100.467 -65.147 7.624 219 255 255
-99.039 -65.240 7.355 227 255 255
-97.582 -65.317 7.132 231 255 255
-96.052 -65.347 7.045 239 255 255
-94.473 -65.344 7.053 220 255 255
-92.906 -65.349 7.040 228 255 255
-91.380 -65.384 6.937 252 255 255
-89.888 -65.445 6.761 239 255 255
-88.413 -65.520 6.543 232 255 255
-86.961 -65.616 6.268 225 255 255
-85.541 -65.740 5.909 235 255 255
-84.152 -65.893 5.466 236 255 255
-82.765 -66.053 5.003 221 255 255
-81.337 -66.186 4.619 223 255 255
-79.825 -66.255 4.420 219 255 255
-78.223 -66.250 4.434 235 255 255
-76.526 -66.163 4.685 226 255 255
-74.763 -66.014 5.117 228 255 255
-73.011 -65.869 5.536 238 255 255
-71.388 -65.835 5.633 223 244 255
-69.964 -65.989 5.188 215 251 255
-68.701 -66.305 4.275 210 233 255
-67.484 -66.680 3.189 214 228 255
-66.200 -67.007 2.244 206 226 255
-64.797 -67.227 1.610 207 223 255
-63.287 -67.344 1.269 193 196 249
-61.723 -67.408 1.086 165 193 234
-60.145 -67.460 0.935 179 184 234
-58.574 -67.523 0.752 175 181 229
-57.016 -67.605 0.515 175 181 216
-55.467 -67.702 0.234 169 180 208
-53.920 -67.808 -0.072 149 178 200
-52.368 -67.915 -0.380 143 184 212
-50.811 -68.022 -0.690 157 171 214
-49.251 -68.130 -1.003 154 173 221
-47.680 -68.232 -1.297 163 174 218
-46.089 -68.310 -1.524 163 174 216
-44.472 -68.355 -1.654 167 175 207
-42.836 -68.373 -1.705 165 183 213
-41.193 -68.380 -1.726 156 174 204
-39.550 -68.388 -1.748 162 181 202
-37.909 -68.401 -1.785 161 176 210
-36.272 -68.422 -1.847 160 175 208
-34.640 -68.455 -1.944 160 172 213
-33.011 -68.497 -2.064 156 169 215
-31.381 -68.542 -2.195 166 176 214
-29.750 -68.590 -2.332 161 178 202
-28.116 -68.636 -2.464 162 184 204
-26.474 -68.666 -2.553 168 181 199
-24.820 -68.670 -2.563 163 176 206
-23.160 -68.652 -2.511 159 167 201
-21.500 -68.634 -2.461 159 168 193
-19.848 -68.640 -2.476 157 172 192
-18.201 -68.667 -2.554 157 161 196
-16.553 -68.696 -2.638 149 155 187
-14.901 -68.710 -2.679 161 169 203
-13.245 -68.708 -2.673 158 172 199
-11.589 -68.703 -2.661 160 166 201
-9.934 -68.712 -2.684 155 167 192
-8.282 -68.739 -2.765 149 168 189
-6.630 -68.786 -2.899 150 168 198
-4.976 -68.839 -3.054 148 170 192
-3.320 -68.884 -3.181 148 168 200
-1.660 -68.905 -3.242 152 172 202
0.000 -68.899 -3.226 150 164 189
1.660 -68.874 -3.153 149 166 190
3.318 -68.840 -3.056 152 166 193
4.974 -68.807 -2.961 150 162 188
6.630 -68.782 -2.889 143 159 188
8.285 -68.766 -2.842 148 155 178
9.940 -68.750 -2.796 143 150 177
11.591 -68.720 -2.707 146 148 179
13.238 -68.670 -2.565 136 148 172
14.883 -68.625 -2.434 135 147 170
16.533 -68.613 -2.400 141 151 177
18.194 -68.643 -2.485 129 154 173
19.863 -68.691 -2.626 125 152 170
21.528 -68.724 -2.720 140 149 180
23.182 -68.720 -2.707 139 148 177
24.826 -68.686 -2.610 141 151 177
26.467 -68.648 -2.501 135 145 171
28.111 -68.624 -2.431 138 148 170
29.758 -68.608 -2.385 143 147 178
31.401 -68.587 -2.324 141 145 176
33.037 -68.551 -2.220 137 146 172
34.664 -68.502 -2.079 134 146 167
36.291 -68.457 -1.948 135 147 172
37.929 -68.437 -1.891 137 145 167
39.585 -68.450 -1.926 130 153 163
41.251 -68.477 -2.007 138 149 165
42.912 -68.494 -2.054 138 149 165
44.557 -68.485 -2.030 137 145 165
46.191 -68.462 -1.962 135 145 171
47.828 -68.443 -1.907 135 147 159
49.470 -68.434 -1.881 129 149 167
51.108 -68.419 -1.837 128 146 165
52.727 -68.381 -1.727 123 143 161
54.323 -68.315 -1.539 127 144 166
55.898 -68.229 -1.288 120 132 153
57.449 -68.119 -0.969 114 134 152
58.965 -67.973 -0.550 113 123 145
60.425 -67.774 0.027 112 124 145
61.818 -67.511 0.786 115 121 142
63.157 -67.205 1.672 107 113 134
64.485 -66.903 2.546 104 119 139
65.849 -66.652 3.272 103 107 126
67.269 -66.468 3.804 107 119 133
68.735 -66.337 4.181 117 120 144
70.227 -66.236 4.473 121 128 151
71.726 -66.147 4.732 120 130 154
73.219 -66.056 4.995 119 134 156
74.683 -65.944 5.319 128 135 158
76.108 -65.801 5.731 121 134 152
77.512 -65.648 6.174 128 139 156
78.945 -65.524 6.532 125 129 148
80.439 -65.455 6.732 123 135 144
81.977 -65.424 6.822 117 134 144
83.517 -65.395 6.905 118 130 142
85.011 -65.332 7.087 112 117 129
86.424 -65.211 7.438 102 105 116
87.759 -65.036 7.944 107 109 115
89.052 -64.836 8.523 101 105 110
90.352 -64.648 9.065 95 96 102
91.665 -64.476 9.563 91 98 100
92.987 -64.316 10.026 83 92 91
94.368 -64.201 10.358 80 85 83
95.891 -64.185 10.404 87 91 94
97.521 -64.240 10.247 82 84 83
99.095 -64.257 10.196 75 84 83
100.573 -64.212 10.327 78 82 85
102.057 -64.172 10.443 67 68 72
103.584 -64.160 10.477 67 73 76
105.078 -64.129 10.568 65 69 74
106.544 -64.081 10.706 64 67 73
108.012 -64.036 10.836 67 71 77
109.136 -63.791 11.545 70 73 81
109.158 -62.917 14.070 84 84 89
107.727 -61.242 18.915 104 98 98
106.301 -59.615 23.619 140 134 113
106.656 -59.016 25.351 148 145 109
108.666 -59.337 24.422 164 165 133
111.457 -60.071 22.301 158 170 155
114.420 -60.877 19.970 163 169 160
116.989 -61.456 18.295 110 117 126
118.539 -61.492 18.192 117 125 127
119.023 -60.981 19.669 119 115 121
119.031 -60.241 21.809 126 126 138
119.093 -59.546 23.818 120 135 141
119.324 -58.952 25.537 129 131 135
119.953 -58.565 26.655 167 148 125
120.235 -58.021 28.230 128 146 124
120.548 -57.503 29.727 125 106 112
126.584 -59.696 23.385 139 150 137
128.174 -59.767 23.181 128 126 134
129.631 -59.774 23.158 120 126 117
130.931 -59.710 23.344 136 139 120
132.375 -59.712 23.338 125 119 117
133.985 -59.789 23.116 155 152 116
135.379 -59.768 23.176 167 197 196
136.723 -59.726 23.298 141 151 147
138.061 -59.682 23.424 175 186 130
139.418 -59.648 23.524 166 165 86
141.403 -59.880 22.854 129 128 121
144.121 -60.414 21.308 148 146 142
144.222 -59.852 22.934 130 136 127
145.689 -59.862 22.905 130 138 128
147.320 -59.939 22.682 139 134 124
149.363 -60.180 21.984 151 147 141
151.400 -60.414 21.308 126 122 128
148.062 -58.520 26.786 149 140 127
147.616 -57.793 28.888 143 130 123
146.765 -56.923 31.404 149 151 136
145.306 -55.835 34.548 140 147 117
142.902 -54.408 38.677 135 146 135
138.958 -52.425 44.410 131 124 124
140.221 -52.425 44.410 132 145 136
141.484 -52.425 44.410 128 145 139
142.747 -52.425 44.410 104 103 108
144.011 -52.425 44.410 112 110 108
145.274 -52.425 44.410 98 101 84
146.537 -52.425 44.410 127 117 111
147.800 -52.425 44.410 146 134 127
149.064 -52.425 44.410 133 140 140
150.327 -52.425 44.410 130 113 105
